2.8041465e+03   2.7822640e+03   2.7838057e+03   2.7849062e+03   2.8063360e+03   2.7969160e+03   2.7843375e+03   2.7977394e+03   2.7788470e+03   2.7846775e+03   2.7872418e+03   2.7794752e+03   2.7992462e+03   2.7978377e+03   2.7869924e+03   2.7836123e+03   2.7846416e+03   2.7997067e+03   2.7896810e+03   2.7967365e+03   2.7935479e+03   2.7935162e+03   2.7812135e+03   2.7803300e+03   2.7831412e+03   2.7881279e+03   2.7813045e+03   2.7849641e+03   2.8003217e+03   2.7931067e+03   2.7815877e+03   2.7842257e+03   2.7814077e+03   2.7872196e+03   2.7810631e+03   2.7819628e+03   2.7817111e+03   2.7910710e+03   2.7834039e+03   2.7898644e+03   2.7813985e+03   2.7773374e+03   2.7752824e+03   2.7824272e+03   2.7699963e+03   2.7686978e+03   2.7692209e+03   2.7725453e+03   2.7724276e+03   2.7678223e+03   2.7677350e+03   2.7696636e+03   2.7679881e+03   2.7689814e+03   2.7667360e+03   2.7676292e+03   2.7663624e+03   2.7665061e+03   2.7661133e+03   2.7681754e+03   2.7683395e+03   2.7661242e+03   2.7656781e+03   2.7761847e+03   2.7730873e+03   2.7709807e+03   2.7591796e+03   2.7602251e+03   2.7584329e+03   2.7587787e+03   2.7681993e+03   2.7607111e+03   2.7681640e+03   2.7775826e+03   2.7643028e+03   2.7745334e+03   2.7662731e+03   2.7674324e+03   2.7688459e+03   2.7768784e+03   2.7776377e+03   2.7856524e+03   2.7745582e+03   2.7781013e+03   2.7870588e+03   2.7799582e+03   2.7859896e+03   2.7820568e+03   2.7770377e+03   2.7728244e+03   2.7832895e+03   2.7792867e+03   2.7807727e+03   2.7735568e+03   2.7841120e+03   2.7781280e+03   2.7767114e+03   2.7859493e+03   2.7760381e+03   2.7727482e+03   2.7741733e+03   2.7697810e+03   2.7738266e+03   2.7765580e+03   2.7694257e+03   2.7718027e+03   2.7729477e+03   2.7716170e+03   2.7793084e+03   2.7855759e+03   2.7702471e+03
2.8031423e+03   2.7807256e+03   2.7831293e+03   2.7957205e+03   2.7929449e+03   2.8002198e+03   2.7885525e+03   2.7958746e+03   2.7976324e+03   2.7787487e+03   2.7836849e+03   2.7822123e+03   2.7787346e+03   2.7816419e+03   2.7792328e+03   2.7860714e+03   2.7869065e+03   2.7864880e+03   2.7990586e+03   2.7813430e+03   2.7826872e+03   2.7970838e+03   2.7837707e+03   2.7852434e+03   2.7794899e+03   2.7794957e+03   2.7814573e+03   2.7813160e+03   2.7846230e+03   2.7819388e+03   2.7886273e+03   2.7796786e+03   2.7847671e+03   2.7894969e+03   2.7806187e+03   2.7908176e+03   2.7949993e+03   2.7941682e+03   2.7847792e+03   2.7870884e+03   2.7881333e+03   2.7891798e+03   2.7898107e+03   2.7864494e+03   2.7699020e+03   2.7686245e+03   2.7680944e+03   2.7826093e+03   2.7674945e+03   2.7673206e+03   2.7669819e+03   2.7669364e+03   2.7671575e+03   2.7756420e+03   2.7662513e+03   2.7661107e+03   2.7691847e+03   2.7680199e+03   2.7706124e+03   2.7680927e+03   2.7745930e+03   2.7661694e+03   2.7658745e+03   2.7697460e+03   2.7625088e+03   2.7644434e+03   2.7710167e+03   2.7588729e+03   2.7603077e+03   2.7603089e+03   2.7584101e+03   2.7590053e+03   2.7657657e+03   2.7736105e+03   2.7759818e+03   2.7720612e+03   2.7766943e+03   2.7748100e+03   2.7744105e+03   2.7685488e+03   2.7705463e+03   2.7849148e+03   2.7735260e+03   2.7779195e+03   2.7783553e+03   2.7777592e+03   2.7769357e+03   2.7733530e+03   2.7822863e+03   2.7719881e+03   2.7810363e+03   2.7814097e+03   2.7861987e+03   2.7702671e+03   2.7763587e+03   2.7703261e+03   2.7811023e+03   2.7749638e+03   2.7752981e+03   2.7700368e+03   2.7823993e+03   2.7697443e+03   2.7702091e+03   2.7842854e+03   2.7695070e+03   2.7688553e+03   2.7688537e+03   2.7780708e+03   2.7839582e+03   2.7762451e+03   2.7697410e+03
2.8021382e+03   2.7874800e+03   2.7817704e+03   2.8014009e+03   2.7815062e+03   2.7811417e+03   2.7816050e+03   2.7885969e+03   2.7919616e+03   2.7781642e+03   2.7775870e+03   2.7778894e+03   2.7871031e+03   2.7774668e+03   2.7876149e+03   2.7820662e+03   2.7830181e+03   2.7781575e+03   2.7827689e+03   2.7944310e+03   2.7776048e+03   2.7787366e+03   2.7815555e+03   2.7857158e+03   2.7786996e+03   2.7795190e+03   2.7780453e+03   2.7824821e+03   2.7782318e+03   2.7943416e+03   2.7837187e+03   2.7851511e+03   2.7801936e+03   2.7797299e+03   2.7861829e+03   2.7828309e+03   2.7856332e+03   2.7867707e+03   2.7876760e+03   2.7870022e+03   2.7841765e+03   2.7854149e+03   2.7775531e+03   2.7705937e+03   2.7783664e+03   2.7687729e+03   2.7678861e+03   2.7675800e+03   2.7695115e+03   2.7710625e+03   2.7710987e+03   2.7665832e+03   2.7676643e+03   2.7662830e+03   2.7661228e+03   2.7658377e+03   2.7680064e+03   2.7657032e+03   2.7667448e+03   2.7660515e+03   2.7681667e+03   2.7716101e+03   2.7656452e+03   2.7650069e+03   2.7759666e+03   2.7587127e+03   2.7608093e+03   2.7580719e+03   2.7647115e+03   2.7580102e+03   2.7601830e+03   2.7591195e+03   2.7793253e+03   2.7685594e+03   2.7660424e+03   2.7667297e+03   2.7658978e+03   2.7654693e+03   2.7736854e+03   2.7793986e+03   2.7698936e+03   2.7701247e+03   2.7718893e+03   2.7809199e+03   2.7752696e+03   2.7869779e+03   2.7783435e+03   2.7793428e+03   2.7723747e+03   2.7714502e+03   2.7740531e+03   2.7801096e+03   2.7793509e+03   2.7771601e+03   2.7781864e+03   2.7814229e+03   2.7860781e+03   2.7806218e+03   2.7855878e+03   2.7802693e+03   2.7825272e+03   2.7878114e+03   2.7810230e+03   2.7776966e+03   2.7771335e+03   2.7763947e+03   2.7805218e+03   2.7703577e+03   2.7780660e+03   2.7815195e+03   2.7692349e+03
2.8011340e+03   2.7935237e+03   2.7862388e+03   2.7797296e+03   2.8026546e+03   2.8003413e+03   2.7787442e+03   2.7783033e+03   2.7871781e+03   2.7921992e+03   2.7779212e+03   2.7817266e+03   2.7883149e+03   2.8002879e+03   2.7817637e+03   2.7843265e+03   2.7761714e+03   2.7874706e+03   2.7834807e+03   2.7756782e+03   2.7859115e+03   2.7779041e+03   2.7748528e+03   2.7754960e+03   2.7884897e+03   2.7800855e+03   2.7816488e+03   2.7772226e+03   2.7788568e+03   2.7775392e+03   2.7837403e+03   2.7828407e+03   2.7823229e+03   2.7856548e+03   2.7936193e+03   2.7810095e+03   2.7855269e+03   2.7851139e+03   2.7888772e+03   2.7904790e+03   2.7818466e+03   2.7957426e+03   2.7749304e+03   2.7701740e+03   2.7692462e+03   2.7819432e+03   2.7762409e+03   2.7752908e+03   2.7752480e+03   2.7672314e+03   2.7662006e+03   2.7660332e+03   2.7719393e+03   2.7661855e+03   2.7747353e+03   2.7655055e+03   2.7654364e+03   2.7653294e+03   2.7653845e+03   2.7655128e+03   2.7655912e+03   2.7655451e+03   2.7654622e+03   2.7649810e+03   2.7719760e+03   2.7614967e+03   2.7571243e+03   2.7649768e+03   2.7572348e+03   2.7569713e+03   2.7616495e+03   2.7593866e+03   2.7636745e+03   2.7830170e+03   2.7630420e+03   2.7696131e+03   2.7637725e+03   2.7716858e+03   2.7652703e+03   2.7749859e+03   2.7704882e+03   2.7709354e+03   2.7741322e+03   2.7712477e+03   2.7770501e+03   2.7720456e+03   2.7819005e+03   2.7757182e+03   2.7820553e+03   2.7709303e+03   2.7725061e+03   2.7798304e+03   2.7811164e+03   2.7752597e+03   2.7735073e+03   2.7811262e+03   2.7786716e+03   2.7795930e+03   2.7768401e+03   2.7692356e+03   2.7706746e+03   2.7822094e+03   2.7732625e+03   2.7845417e+03   2.7709272e+03   2.7737511e+03   2.7804072e+03   2.7775762e+03   2.7715579e+03   2.7866419e+03   2.7687287e+03
2.8001298e+03   2.7846152e+03   2.7886951e+03   2.8090115e+03   2.7920657e+03   2.7978896e+03   2.7912027e+03   2.7801216e+03   2.7802645e+03   2.7922375e+03   2.8040788e+03   2.7769174e+03   2.7765574e+03   2.7840764e+03   2.7810730e+03   2.7795485e+03   2.7860237e+03   2.7886351e+03   2.7801847e+03   2.7911519e+03   2.7857326e+03   2.7808225e+03   2.7926790e+03   2.7766813e+03   2.7843882e+03   2.7740883e+03   2.7774009e+03   2.7927387e+03   2.7763309e+03   2.7762785e+03   2.7780745e+03   2.7878560e+03   2.7816311e+03   2.7804241e+03   2.7800132e+03   2.7809145e+03   2.7912217e+03   2.7862913e+03   2.7841862e+03   2.7929293e+03   2.7813075e+03   2.7769182e+03   2.7800808e+03   2.7708622e+03   2.7764095e+03   2.7681964e+03   2.7825209e+03   2.7742649e+03   2.7751690e+03   2.7721130e+03   2.7658651e+03   2.7722489e+03   2.7689809e+03   2.7654168e+03   2.7657654e+03   2.7674155e+03   2.7651327e+03   2.7651935e+03   2.7651352e+03   2.7654280e+03   2.7657574e+03   2.7681944e+03   2.7652098e+03   2.7739352e+03   2.7701653e+03   2.7623529e+03   2.7709272e+03   2.7625183e+03   2.7554322e+03   2.7635668e+03   2.7562023e+03   2.7624131e+03   2.7600613e+03   2.7761916e+03   2.7658643e+03   2.7620475e+03   2.7793770e+03   2.7657909e+03   2.7745084e+03   2.7689193e+03   2.7708881e+03   2.7790479e+03   2.7669527e+03   2.7683040e+03   2.7812170e+03   2.7785804e+03   2.7716590e+03   2.7721541e+03   2.7705921e+03   2.7784808e+03   2.7732623e+03   2.7836990e+03   2.7794381e+03   2.7748209e+03   2.7739670e+03   2.7768772e+03   2.7692113e+03   2.7702938e+03   2.7767835e+03   2.7682785e+03   2.7854777e+03   2.7696987e+03   2.7782100e+03   2.7756969e+03   2.7746731e+03   2.7822569e+03   2.7818567e+03   2.7677238e+03   2.7693433e+03   2.7716428e+03   2.7682226e+03
2.7991257e+03   2.7872410e+03   2.7874885e+03   2.7817002e+03   2.7790704e+03   2.7911047e+03   2.7779166e+03   2.7795701e+03   2.7949450e+03   2.7858448e+03   2.7889123e+03   2.7767123e+03   2.7759639e+03   2.7766731e+03   2.7762030e+03   2.7878471e+03   2.7787851e+03   2.7759554e+03   2.7753616e+03   2.7876044e+03   2.7751323e+03   2.7777000e+03   2.7742262e+03   2.7738481e+03   2.7741686e+03   2.7734319e+03   2.7775142e+03   2.7791524e+03   2.7841549e+03   2.7757265e+03   2.7761976e+03   2.7773707e+03   2.7882703e+03   2.7787591e+03   2.7797107e+03   2.7808425e+03   2.7817917e+03   2.7872566e+03   2.7903106e+03   2.7837208e+03   2.7905536e+03   2.7761024e+03   2.7786759e+03   2.7694971e+03   2.7726503e+03   2.7817518e+03   2.7712985e+03   2.7668383e+03   2.7664047e+03   2.7659487e+03   2.7654579e+03   2.7654063e+03   2.7701052e+03   2.7652235e+03   2.7650453e+03   2.7648174e+03   2.7666599e+03   2.7647206e+03   2.7650642e+03   2.7708592e+03   2.7651851e+03   2.7651439e+03   2.7650624e+03   2.7648944e+03   2.7684051e+03   2.7648881e+03   2.7612294e+03   2.7651185e+03   2.7551644e+03   2.7642951e+03   2.7678837e+03   2.7562615e+03   2.7643288e+03   2.7673798e+03   2.7717527e+03   2.7649175e+03   2.7623268e+03   2.7649043e+03   2.7683591e+03   2.7644214e+03   2.7707165e+03   2.7701286e+03   2.7656788e+03   2.7726162e+03   2.7745000e+03   2.7771580e+03   2.7844429e+03   2.7804301e+03   2.7697147e+03   2.7802240e+03   2.7703617e+03   2.7856466e+03   2.7689552e+03   2.7797017e+03   2.7820330e+03   2.7732552e+03   2.7776157e+03   2.7765799e+03   2.7688719e+03   2.7730342e+03   2.7777313e+03   2.7821393e+03   2.7770847e+03   2.7817275e+03   2.7783780e+03   2.7849074e+03   2.7704892e+03   2.7818545e+03   2.7775647e+03   2.7673034e+03   2.7677165e+03
2.7981215e+03   2.7851994e+03   2.7928422e+03   2.7941674e+03   2.7942426e+03   2.7782396e+03   2.7774440e+03   2.7770911e+03   2.7902157e+03   2.7864985e+03   2.7823828e+03   2.7765791e+03   2.7762138e+03   2.7812219e+03   2.7789529e+03   2.7757811e+03   2.7806196e+03   2.7757918e+03   2.7796651e+03   2.7765817e+03   2.7787747e+03   2.7842225e+03   2.7818536e+03   2.7789166e+03   2.7874256e+03   2.7769368e+03   2.7729526e+03   2.7725131e+03   2.7784128e+03   2.7825735e+03   2.7747184e+03   2.7832574e+03   2.7782700e+03   2.7800927e+03   2.7844667e+03   2.7804309e+03   2.7922203e+03   2.7850530e+03   2.7836997e+03   2.7964536e+03   2.7819212e+03   2.7881157e+03   2.7818792e+03   2.7868959e+03   2.7811265e+03   2.7674767e+03   2.7801312e+03   2.7769892e+03   2.7660345e+03   2.7657743e+03   2.7653237e+03   2.7651235e+03   2.7680243e+03   2.7657974e+03   2.7654667e+03   2.7691573e+03   2.7658790e+03   2.7643188e+03   2.7648711e+03   2.7691681e+03   2.7673378e+03   2.7649689e+03   2.7650104e+03   2.7645486e+03   2.7631587e+03   2.7662171e+03   2.7614431e+03   2.7602406e+03   2.7589557e+03   2.7680161e+03   2.7738880e+03   2.7640513e+03   2.7622141e+03   2.7646107e+03   2.7697428e+03   2.7668846e+03   2.7662660e+03   2.7761570e+03   2.7666073e+03   2.7656393e+03   2.7759494e+03   2.7641899e+03   2.7654455e+03   2.7697698e+03   2.7714582e+03   2.7784805e+03   2.7713720e+03   2.7821233e+03   2.7761247e+03   2.7773052e+03   2.7759439e+03   2.7839156e+03   2.7684186e+03   2.7684727e+03   2.7770271e+03   2.7770688e+03   2.7786710e+03   2.7811180e+03   2.7695682e+03   2.7776627e+03   2.7843587e+03   2.7834830e+03   2.7820122e+03   2.7718687e+03   2.7750026e+03   2.7838767e+03   2.7802999e+03   2.7790439e+03   2.7738972e+03   2.7670315e+03   2.7672103e+03
2.7971173e+03   2.7790962e+03   2.7791226e+03   2.7872663e+03   2.7783916e+03   2.7845525e+03   2.7896401e+03   2.7822646e+03   2.7777136e+03   2.7979058e+03   2.7901406e+03   2.7762008e+03   2.7757435e+03   2.7756498e+03   2.7822902e+03   2.7959155e+03   2.7761866e+03   2.7795356e+03   2.7755666e+03   2.7747520e+03   2.7852135e+03   2.7743826e+03   2.7759779e+03   2.7875081e+03   2.7796075e+03   2.7822247e+03   2.7828812e+03   2.7734483e+03   2.7830169e+03   2.7723519e+03   2.7809755e+03   2.7734864e+03   2.7881052e+03   2.7788589e+03   2.7816296e+03   2.7809625e+03   2.7812569e+03   2.7896927e+03   2.7832796e+03   2.7840940e+03   2.7857673e+03   2.7752693e+03   2.7781994e+03   2.7695662e+03   2.7681201e+03   2.7734611e+03   2.7750574e+03   2.7773708e+03   2.7656979e+03   2.7652903e+03   2.7650676e+03   2.7758028e+03   2.7646182e+03   2.7646308e+03   2.7643756e+03   2.7644386e+03   2.7764436e+03   2.7718395e+03   2.7645766e+03   2.7658290e+03   2.7719958e+03   2.7717511e+03   2.7772667e+03   2.7681991e+03   2.7684087e+03   2.7717764e+03   2.7614018e+03   2.7711551e+03   2.7583911e+03   2.7543276e+03             NaN   2.7683590e+03   2.7592194e+03   2.7568787e+03   2.7711367e+03   2.7754334e+03   2.7652922e+03   2.7637210e+03   2.7704812e+03   2.7637642e+03   2.7659701e+03   2.7730321e+03   2.7756015e+03   2.7667191e+03   2.7803434e+03   2.7737997e+03   2.7735939e+03   2.7753307e+03   2.7693996e+03   2.7678133e+03   2.7697177e+03   2.7854819e+03   2.7675173e+03   2.7678770e+03   2.7677601e+03   2.7703050e+03   2.7677726e+03   2.7797961e+03   2.7832370e+03   2.7846848e+03   2.7741955e+03   2.7736192e+03   2.7690143e+03   2.7767171e+03   2.7787818e+03   2.7771263e+03   2.7724267e+03   2.7742707e+03   2.7680091e+03   2.7672644e+03   2.7668617e+03
2.7961132e+03   2.7861577e+03   2.7787806e+03   2.7786628e+03   2.7849553e+03   2.7774212e+03   2.7765001e+03   2.7765674e+03   2.7760952e+03   2.7761695e+03   2.7759294e+03   2.7761331e+03   2.7760814e+03   2.7755095e+03   2.7753411e+03   2.7747472e+03   2.7821645e+03   2.7747793e+03   2.7756365e+03   2.7806174e+03   2.7770301e+03   2.7801618e+03   2.7759210e+03   2.7750554e+03   2.7760343e+03   2.7730676e+03   2.7825733e+03   2.7781685e+03   2.7719805e+03   2.7801002e+03   2.7717591e+03   2.7759176e+03   2.7831277e+03   2.7802049e+03   2.7782118e+03   2.7792474e+03   2.7809834e+03   2.7918615e+03   2.7825764e+03   2.7896727e+03   2.7874544e+03   2.7920322e+03   2.7842922e+03   2.7685166e+03   2.7684712e+03   2.7689718e+03   2.7696108e+03   2.7655066e+03   2.7697889e+03   2.7719887e+03   2.7648359e+03   2.7693072e+03   2.7645204e+03   2.7642149e+03   2.7641140e+03   2.7650423e+03   2.7657580e+03   2.7638453e+03   2.7647004e+03   2.7643761e+03   2.7677083e+03   2.7644206e+03   2.7676076e+03   2.7690637e+03   2.7640595e+03             NaN   2.7695590e+03   2.7605244e+03   2.7689986e+03   2.7586952e+03   2.7587984e+03   2.7691581e+03   2.7564893e+03   2.7594812e+03   2.7575392e+03   2.7599608e+03   2.7613309e+03   2.7638164e+03   2.7661935e+03   2.7632485e+03   2.7690472e+03   2.7654384e+03   2.7657175e+03   2.7678533e+03   2.7729245e+03   2.7651021e+03   2.7762426e+03   2.7708938e+03   2.7729009e+03   2.7673760e+03   2.7668382e+03   2.7801196e+03   2.7686788e+03   2.7778334e+03   2.7823647e+03   2.7712492e+03   2.7812290e+03   2.7840078e+03   2.7665001e+03   2.7673800e+03   2.7713245e+03   2.7814263e+03   2.7667136e+03   2.7670987e+03   2.7789697e+03   2.7743576e+03   2.7739555e+03   2.7826476e+03   2.7765636e+03   2.7732220e+03   2.7666096e+03
2.7951090e+03   2.7969159e+03   2.7926473e+03   2.7786761e+03   2.7779816e+03   2.7780244e+03   2.7770265e+03   2.7761562e+03   2.7761204e+03   2.7760309e+03   2.7757830e+03   2.7757800e+03   2.7757793e+03   2.7757102e+03   2.7752056e+03   2.7877337e+03   2.7747345e+03   2.7799434e+03   2.7823069e+03   2.7767747e+03   2.7747453e+03   2.7846005e+03   2.7736044e+03   2.7777975e+03   2.7882124e+03   2.7741760e+03   2.7859156e+03   2.7888131e+03   2.7779960e+03   2.7716421e+03   2.7791475e+03   2.7826600e+03   2.7741038e+03   2.7749081e+03   2.7862332e+03   2.7856022e+03   2.7855288e+03   2.7920876e+03   2.7853651e+03   2.7885279e+03   2.7789359e+03   2.7832741e+03   2.7763417e+03   2.7686969e+03   2.7745419e+03   2.7694910e+03   2.7654133e+03   2.7666176e+03   2.7670014e+03   2.7711144e+03   2.7729068e+03   2.7642135e+03   2.7641395e+03   2.7645174e+03   2.7687342e+03   2.7676548e+03   2.7684109e+03   2.7702162e+03   2.7752222e+03   2.7772242e+03   2.7705345e+03   2.7641884e+03   2.7641700e+03   2.7640112e+03   2.7637736e+03             NaN   2.7696633e+03   2.7604120e+03   2.7617573e+03   2.7604875e+03   2.7678132e+03   2.7651855e+03   2.7777899e+03   2.7581268e+03   2.7561876e+03   2.7654012e+03   2.7600359e+03   2.7715196e+03   2.7646704e+03   2.7612669e+03   2.7631785e+03   2.7717635e+03   2.7646654e+03   2.7630759e+03   2.7649291e+03   2.7641387e+03   2.7729717e+03   2.7769428e+03   2.7746126e+03   2.7672140e+03   2.7669437e+03   2.7694152e+03   2.7718333e+03   2.7777728e+03   2.7735276e+03   2.7800144e+03   2.7750084e+03   2.7765133e+03   2.7812597e+03   2.7686030e+03   2.7731970e+03   2.7774430e+03   2.7811823e+03   2.7670395e+03   2.7665991e+03   2.7660541e+03   2.7787430e+03   2.7682372e+03   2.7744704e+03   2.7659716e+03   2.7663574e+03
2.7941049e+03   2.7855574e+03   2.7807928e+03   2.7839704e+03   2.7782954e+03   2.7778960e+03   2.7780543e+03   2.7783179e+03   2.7763634e+03   2.7758747e+03   2.7758892e+03   2.7758983e+03   2.7758366e+03   2.7756129e+03   2.7754199e+03   2.7734206e+03   2.7736335e+03   2.7814513e+03   2.7855323e+03   2.7742491e+03   2.7756436e+03   2.7789829e+03   2.7727207e+03   2.7727833e+03   2.7770021e+03   2.7726779e+03   2.7747412e+03   2.7765976e+03   2.7725162e+03   2.7716678e+03   2.7859312e+03   2.7752655e+03   2.7822286e+03   2.7720845e+03   2.7803708e+03   2.7798812e+03   2.7790518e+03   2.7885757e+03   2.7813368e+03   2.7835109e+03   2.7777047e+03   2.7887624e+03   2.7844876e+03   2.7732580e+03   2.7661085e+03   2.7653028e+03   2.7737907e+03   2.7649063e+03   2.7722860e+03   2.7667140e+03   2.7706815e+03   2.7641386e+03   2.7686160e+03   2.7635437e+03   2.7660251e+03   2.7635602e+03   2.7677451e+03   2.7739551e+03   2.7763032e+03   2.7643253e+03   2.7637983e+03   2.7759836e+03   2.7645988e+03   2.7639491e+03   2.7637405e+03             NaN   2.7625584e+03   2.7609434e+03   2.7595560e+03   2.7588490e+03   2.7583626e+03   2.7631784e+03   2.7715081e+03   2.7549557e+03   2.7546905e+03   2.7590634e+03   2.7696150e+03   2.7655942e+03   2.7595448e+03   2.7681499e+03   2.7630786e+03   2.7630614e+03   2.7630088e+03   2.7669910e+03   2.7678564e+03   2.7631932e+03   2.7652009e+03   2.7662664e+03   2.7663744e+03   2.7654885e+03   2.7679370e+03   2.7656142e+03   2.7758630e+03   2.7771435e+03   2.7777312e+03   2.7766656e+03   2.7686897e+03   2.7727928e+03   2.7657707e+03   2.7653733e+03   2.7705382e+03   2.7805191e+03   2.7675378e+03   2.7763097e+03   2.7700242e+03   2.7693851e+03   2.7655401e+03   2.7685143e+03   2.7660713e+03   2.7675469e+03   2.7661053e+03
2.7931007e+03   2.7887135e+03   2.7887133e+03   2.7789761e+03   2.7783350e+03   2.7781851e+03   2.7783186e+03   2.7792110e+03   2.7774620e+03   2.7768077e+03   2.7765043e+03   2.7756591e+03   2.7756495e+03   2.7754723e+03   2.7753063e+03   2.7754503e+03   2.7734347e+03   2.7723680e+03   2.7890108e+03   2.7746272e+03   2.7800251e+03   2.7732039e+03   2.7820706e+03   2.7870521e+03   2.7723262e+03   2.7771425e+03   2.7772866e+03   2.7735150e+03   2.7717544e+03   2.7873773e+03   2.7866118e+03   2.7816428e+03   2.7938316e+03   2.7786316e+03   2.7822776e+03   2.7799187e+03   2.7811131e+03   2.7808586e+03   2.7799663e+03   2.7908337e+03   2.7774210e+03   2.7820591e+03   2.7757399e+03   2.7672470e+03   2.7690490e+03   2.7700193e+03   2.7660992e+03   2.7752561e+03   2.7668924e+03   2.7732792e+03   2.7645812e+03   2.7670675e+03   2.7672411e+03   2.7633899e+03   2.7632831e+03   2.7699215e+03   2.7633208e+03   2.7648640e+03   2.7727188e+03   2.7660100e+03   2.7698371e+03   2.7659452e+03   2.7656620e+03   2.7659753e+03   2.7635995e+03             NaN   2.7621052e+03   2.7605363e+03   2.7614801e+03   2.7587542e+03   2.7732581e+03   2.7549791e+03   2.7535278e+03   2.7611513e+03   2.7564542e+03   2.7628375e+03   2.7682115e+03   2.7653215e+03   2.7601038e+03   2.7593020e+03   2.7663789e+03   2.7669121e+03   2.7649584e+03   2.7670773e+03   2.7680635e+03   2.7623772e+03   2.7625528e+03   2.7721071e+03   2.7739833e+03   2.7675829e+03   2.7646729e+03   2.7660106e+03   2.7767794e+03   2.7747907e+03   2.7696245e+03   2.7653527e+03   2.7669384e+03   2.7719994e+03   2.7805086e+03   2.7720988e+03   2.7699989e+03   2.7758213e+03   2.7701285e+03   2.7747414e+03   2.7687158e+03   2.7718867e+03   2.7739627e+03   2.7703081e+03   2.7696148e+03   2.7753718e+03   2.7658532e+03
2.7920965e+03   2.7896043e+03   2.7865647e+03   2.7922483e+03   2.7788592e+03   2.7785549e+03   2.7787668e+03   2.7785608e+03   2.7781388e+03   2.7776475e+03   2.7768750e+03   2.7759452e+03   2.7756360e+03   2.7752538e+03   2.7793872e+03   2.7784619e+03   2.7872373e+03   2.7747244e+03   2.7734132e+03   2.7721992e+03   2.7931672e+03   2.7773683e+03   2.7729269e+03   2.7723838e+03   2.7791040e+03   2.7869787e+03   2.7743169e+03   2.7731457e+03   2.7834679e+03   2.7711813e+03   2.7710821e+03   2.7834560e+03   2.7708052e+03   2.7718593e+03   2.7716356e+03   2.7820692e+03   2.7898477e+03   2.7874036e+03   2.7905772e+03   2.7810955e+03   2.7768535e+03   2.7834920e+03   2.7701100e+03   2.7794520e+03   2.7777056e+03   2.7770471e+03   2.7757042e+03   2.7646378e+03   2.7650812e+03   2.7657713e+03   2.7640230e+03   2.7636204e+03   2.7643814e+03   2.7734200e+03   2.7631279e+03   2.7674948e+03   2.7641440e+03   2.7702360e+03   2.7654999e+03   2.7630996e+03   2.7634056e+03   2.7632821e+03   2.7633159e+03   2.7722508e+03   2.7632815e+03             NaN   2.7625914e+03   2.7689628e+03   2.7600061e+03   2.7590380e+03   2.7584030e+03   2.7591604e+03   2.7584547e+03   2.7645933e+03   2.7666879e+03   2.7544601e+03   2.7636779e+03   2.7594873e+03   2.7596259e+03   2.7591763e+03   2.7595439e+03   2.7608198e+03   2.7622366e+03   2.7668296e+03   2.7620631e+03   2.7620872e+03   2.7722496e+03   2.7639077e+03   2.7689570e+03   2.7676489e+03   2.7763719e+03   2.7752413e+03   2.7703194e+03   2.7725813e+03   2.7696365e+03   2.7658822e+03   2.7664641e+03   2.7808515e+03   2.7771663e+03   2.7671688e+03   2.7800976e+03   2.7729829e+03   2.7749406e+03   2.7693365e+03   2.7652009e+03   2.7691743e+03   2.7649023e+03   2.7647813e+03   2.7669299e+03   2.7721416e+03   2.7656011e+03
2.7910924e+03   2.7925229e+03   2.7879132e+03   2.7859214e+03   2.7793182e+03   2.7787939e+03   2.7787564e+03   2.7802651e+03   2.7788948e+03   2.7785889e+03   2.7771617e+03   2.7761172e+03   2.7791445e+03   2.7760359e+03   2.7765242e+03   2.7863788e+03   2.7833649e+03   2.7751436e+03   2.7733696e+03   2.7732145e+03   2.7722167e+03   2.7832162e+03   2.7728635e+03   2.7728634e+03   2.7727835e+03   2.7831493e+03   2.7728743e+03   2.7792335e+03   2.7782583e+03   2.7831698e+03   2.7708539e+03   2.7723923e+03   2.7704605e+03   2.7728150e+03   2.7791125e+03   2.7709410e+03   2.7765360e+03   2.7763557e+03   2.7779074e+03   2.7774495e+03   2.7763492e+03   2.7733479e+03   2.7698339e+03   2.7701899e+03   2.7692359e+03   2.7650251e+03   2.7722649e+03   2.7645198e+03   2.7682550e+03   2.7641659e+03   2.7638634e+03   2.7635910e+03   2.7633245e+03   2.7699627e+03   2.7767709e+03   2.7630263e+03   2.7630524e+03   2.7629474e+03   2.7686268e+03   2.7627030e+03   2.7659204e+03   2.7775399e+03   2.7632964e+03   2.7630869e+03   2.7652897e+03             NaN   2.7711923e+03   2.7735088e+03   2.7706752e+03   2.7658025e+03   2.7671711e+03   2.7556066e+03   2.7592697e+03   2.7611433e+03   2.7526593e+03   2.7597286e+03   2.7597741e+03   2.7651129e+03   2.7587047e+03   2.7639618e+03   2.7671001e+03   2.7592609e+03   2.7660504e+03   2.7620291e+03   2.7680859e+03   2.7617231e+03   2.7736627e+03   2.7751513e+03   2.7664572e+03   2.7633092e+03   2.7661782e+03   2.7662604e+03   2.7695033e+03   2.7816830e+03   2.7664914e+03   2.7775829e+03   2.7647959e+03   2.7664728e+03   2.7644657e+03   2.7640976e+03   2.7645046e+03   2.7793666e+03   2.7646589e+03   2.7730408e+03   2.7686545e+03   2.7680353e+03   2.7663352e+03   2.7689613e+03   2.7666980e+03   2.7743700e+03   2.7653490e+03
2.7900882e+03   2.7921801e+03   2.7931229e+03   2.7889920e+03   2.7807496e+03   2.7791357e+03   2.7790756e+03   2.7790350e+03   2.7787027e+03   2.7780246e+03   2.7774430e+03   2.7764520e+03   2.7760744e+03   2.7764147e+03   2.7759616e+03   2.7809005e+03   2.7756226e+03   2.7798386e+03   2.7814773e+03   2.7729393e+03   2.7720043e+03   2.7739435e+03   2.7757164e+03   2.7736049e+03   2.7725169e+03   2.7789629e+03   2.7768291e+03   2.7830366e+03   2.7715146e+03   2.7733390e+03   2.7747941e+03   2.7838408e+03   2.7701170e+03   2.7724527e+03   2.7700449e+03   2.7730665e+03   2.7701986e+03   2.7725855e+03   2.7827097e+03   2.7752103e+03   2.7918484e+03   2.7773809e+03   2.7809278e+03   2.7662610e+03   2.7654382e+03   2.7652137e+03   2.7663448e+03   2.7754098e+03   2.7665152e+03   2.7674999e+03   2.7637208e+03   2.7634479e+03   2.7632356e+03   2.7631398e+03   2.7628703e+03   2.7644611e+03   2.7720598e+03   2.7627398e+03   2.7627565e+03   2.7626154e+03   2.7632071e+03   2.7656264e+03   2.7626636e+03   2.7625540e+03   2.7661782e+03   2.7648737e+03   2.7624624e+03   2.7736269e+03   2.7730018e+03   2.7614720e+03   2.7590262e+03   2.7549015e+03   2.7558842e+03   2.7700735e+03   2.7571409e+03   2.7621335e+03   2.7560123e+03   2.7598299e+03   2.7585200e+03   2.7659359e+03   2.7643414e+03   2.7585307e+03   2.7632073e+03   2.7700880e+03   2.7626108e+03   2.7615491e+03   2.7663526e+03   2.7613700e+03   2.7756576e+03   2.7702615e+03   2.7728360e+03   2.7630725e+03   2.7637287e+03   2.7634089e+03   2.7682068e+03   2.7747498e+03   2.7726993e+03   2.7688924e+03   2.7762792e+03   2.7783525e+03   2.7739911e+03   2.7787278e+03   2.7721205e+03   2.7670921e+03   2.7732736e+03   2.7644026e+03   2.7766822e+03   2.7641375e+03   2.7788447e+03   2.7640757e+03   2.7650969e+03
2.7890840e+03   2.7933061e+03   2.7859014e+03   2.7890430e+03   2.7814157e+03   2.7798988e+03   2.7800012e+03   2.7794974e+03   2.7792743e+03   2.7784773e+03   2.7780067e+03   2.7785088e+03   2.7767578e+03   2.7768474e+03   2.7764109e+03   2.7850037e+03   2.7781988e+03   2.7772094e+03   2.7828530e+03   2.7821919e+03   2.7714475e+03   2.7805683e+03   2.7702714e+03   2.7709365e+03   2.7716731e+03   2.7712639e+03   2.7745936e+03   2.7736518e+03   2.7833381e+03   2.7838326e+03   2.7709211e+03   2.7699275e+03   2.7734194e+03   2.7763693e+03   2.7750683e+03   2.7694781e+03   2.7843513e+03   2.7695983e+03   2.7694204e+03   2.7702892e+03   2.7737444e+03   2.7737071e+03   2.7742691e+03   2.7660609e+03   2.7756949e+03   2.7655309e+03   2.7737376e+03   2.7695496e+03   2.7640329e+03   2.7637586e+03   2.7635529e+03   2.7644970e+03   2.7734702e+03   2.7631179e+03   2.7635145e+03   2.7627182e+03   2.7708969e+03   2.7677657e+03   2.7625348e+03   2.7650117e+03   2.7724553e+03   2.7664561e+03   2.7697090e+03   2.7643155e+03   2.7626534e+03   2.7691577e+03   2.7620880e+03   2.7605050e+03   2.7594245e+03   2.7617173e+03   2.7670980e+03   2.7652438e+03   2.7641392e+03   2.7606320e+03   2.7533317e+03   2.7545866e+03   2.7552899e+03   2.7644497e+03   2.7584249e+03   2.7616931e+03   2.7693651e+03   2.7579753e+03   2.7594824e+03   2.7609513e+03   2.7624785e+03   2.7700784e+03   2.7705747e+03   2.7667908e+03   2.7613853e+03   2.7664175e+03   2.7628877e+03   2.7653837e+03   2.7629851e+03   2.7704394e+03   2.7678728e+03   2.7736201e+03   2.7678870e+03   2.7675876e+03   2.7633158e+03   2.7634483e+03   2.7735428e+03   2.7781214e+03   2.7657976e+03   2.7662780e+03   2.7729264e+03   2.7667768e+03   2.7729993e+03   2.7741876e+03   2.7660091e+03   2.7636561e+03   2.7648447e+03
2.7880799e+03   2.8013125e+03   2.7969352e+03   2.7904302e+03   2.7809718e+03   2.7803385e+03   2.7796834e+03   2.7794192e+03   2.7790433e+03   2.7781933e+03   2.7780149e+03   2.7775108e+03   2.7774059e+03   2.7769834e+03   2.7815393e+03   2.7846762e+03   2.7778828e+03   2.7740745e+03   2.7733902e+03   2.7922375e+03   2.7730325e+03   2.7737574e+03   2.7752910e+03   2.7719704e+03   2.7697421e+03   2.7714665e+03   2.7858326e+03   2.7829872e+03   2.7699013e+03   2.7801794e+03   2.7761848e+03   2.7798153e+03   2.7744707e+03   2.7748924e+03   2.7825819e+03   2.7698106e+03   2.7837588e+03   2.7756577e+03   2.7685259e+03   2.7685422e+03   2.7727189e+03   2.7675319e+03   2.7685322e+03   2.7659425e+03   2.7713453e+03   2.7774439e+03   2.7779876e+03   2.7715020e+03   2.7640532e+03   2.7637637e+03   2.7634745e+03   2.7632717e+03   2.7630428e+03   2.7762269e+03   2.7647719e+03   2.7673685e+03   2.7623609e+03   2.7626686e+03   2.7621794e+03   2.7620384e+03   2.7675766e+03   2.7622400e+03   2.7646601e+03   2.7624515e+03   2.7634298e+03   2.7638507e+03   2.7626248e+03   2.7612430e+03   2.7613968e+03   2.7583771e+03   2.7699487e+03   2.7539556e+03   2.7538784e+03   2.7563393e+03   2.7653839e+03   2.7531381e+03   2.7694280e+03   2.7571502e+03   2.7691204e+03   2.7657383e+03   2.7571887e+03   2.7585402e+03   2.7597902e+03   2.7676269e+03   2.7640771e+03   2.7705364e+03   2.7607725e+03   2.7654644e+03   2.7657073e+03   2.7616250e+03   2.7611402e+03   2.7688950e+03   2.7693156e+03   2.7690028e+03   2.7650035e+03   2.7622930e+03   2.7795265e+03   2.7639749e+03   2.7640048e+03   2.7633987e+03   2.7688755e+03   2.7637985e+03   2.7773467e+03   2.7662832e+03   2.7707212e+03   2.7789148e+03   2.7720294e+03   2.7649500e+03   2.7630042e+03   2.7735042e+03   2.7659982e+03
2.7870757e+03   2.7963860e+03   2.7949679e+03   2.8013618e+03   2.7808112e+03   2.7805316e+03   2.7803157e+03   2.7797452e+03   2.7793560e+03   2.7793772e+03   2.7785616e+03   2.7779883e+03   2.7772946e+03   2.7770332e+03   2.7756476e+03   2.7747373e+03   2.7987009e+03   2.7893773e+03   2.7771974e+03   2.7728752e+03   2.7733321e+03   2.7716741e+03   2.7717629e+03   2.7832636e+03   2.7705977e+03   2.7698214e+03   2.7805613e+03   2.7844209e+03   2.7778372e+03   2.7761223e+03   2.7773328e+03   2.7743657e+03   2.7761686e+03   2.7763170e+03   2.7691659e+03   2.7750414e+03   2.7692220e+03   2.7685273e+03   2.7687377e+03   2.7675384e+03   2.7874649e+03   2.7791930e+03   2.7687149e+03   2.7693930e+03   2.7695237e+03   2.7705612e+03   2.7752628e+03   2.7662089e+03   2.7641589e+03   2.7681554e+03   2.7634631e+03   2.7633493e+03   2.7628519e+03   2.7638917e+03   2.7625903e+03   2.7624929e+03   2.7621571e+03   2.7716582e+03   2.7620274e+03   2.7624779e+03   2.7689481e+03   2.7711541e+03   2.7656146e+03   2.7614969e+03   2.7629074e+03   2.7617462e+03   2.7679980e+03   2.7613759e+03   2.7654989e+03   2.7626300e+03   2.7564135e+03   2.7544045e+03   2.7552887e+03   2.7539736e+03   2.7753195e+03   2.7582558e+03   2.7513823e+03   2.7691195e+03   2.7583939e+03   2.7613988e+03   2.7575449e+03   2.7574193e+03   2.7592261e+03   2.7641514e+03   2.7630540e+03   2.7639086e+03   2.7617940e+03   2.7634645e+03   2.7635506e+03   2.7614895e+03   2.7723405e+03   2.7686535e+03   2.7742374e+03   2.7615492e+03   2.7743835e+03   2.7748945e+03   2.7627254e+03   2.7770075e+03   2.7790848e+03   2.7800827e+03   2.7700012e+03   2.7738192e+03   2.7701598e+03   2.7736911e+03   2.7776899e+03   2.7667057e+03   2.7633460e+03   2.7626606e+03   2.7696573e+03   2.7685682e+03   2.7673254e+03
2.7932434e+03   2.8079947e+03   2.7827643e+03   2.7812715e+03   2.7821325e+03   2.7807380e+03   2.7805272e+03   2.7805794e+03   2.7798276e+03   2.7789232e+03   2.7785572e+03   2.7781511e+03   2.7775028e+03   2.7768565e+03   2.7810475e+03   2.7778814e+03   2.7769704e+03   2.7830230e+03   2.7785548e+03   2.7877017e+03   2.7759500e+03   2.7766171e+03   2.7786083e+03   2.7809146e+03   2.7706825e+03   2.7703632e+03   2.7723586e+03   2.7768313e+03   2.7755230e+03   2.7693127e+03   2.7690909e+03   2.7700238e+03   2.7746818e+03   2.7715760e+03   2.7744462e+03   2.7687728e+03   2.7735110e+03   2.7786909e+03   2.7680267e+03   2.7801371e+03   2.7667880e+03   2.7673571e+03   2.7680602e+03   2.7656194e+03   2.7726250e+03   2.7695629e+03   2.7679219e+03   2.7718360e+03   2.7640236e+03   2.7687168e+03   2.7693502e+03   2.7689865e+03   2.7628659e+03   2.7625838e+03   2.7625587e+03   2.7660398e+03   2.7620582e+03   2.7617417e+03   2.7683120e+03   2.7653274e+03   2.7647705e+03   2.7678140e+03   2.7721714e+03   2.7610542e+03   2.7658857e+03   2.7626759e+03   2.7622566e+03   2.7610376e+03   2.7604881e+03   2.7744992e+03   2.7560486e+03   2.7533856e+03   2.7529128e+03   2.7623284e+03   2.7637312e+03   2.7728372e+03   2.7561796e+03   2.7521640e+03   2.7595424e+03   2.7624230e+03   2.7626750e+03   2.7658642e+03   2.7586929e+03   2.7650296e+03   2.7614602e+03   2.7682803e+03   2.7668611e+03   2.7659234e+03   2.7672613e+03   2.7732585e+03   2.7606907e+03   2.7613311e+03   2.7647604e+03   2.7697400e+03   2.7692483e+03   2.7662025e+03   2.7775224e+03   2.7758714e+03   2.7724237e+03   2.7683980e+03   2.7685931e+03   2.7645678e+03   2.7676964e+03   2.7781332e+03   2.7726037e+03   2.7732048e+03   2.7712591e+03   2.7719397e+03   2.7728435e+03   2.7646809e+03   2.7686527e+03
2.8043949e+03   2.8071344e+03   2.7852417e+03   2.7815798e+03   2.7827499e+03   2.7819267e+03   2.7807839e+03   2.7799384e+03   2.7798591e+03   2.7793694e+03   2.7786620e+03   2.7782135e+03   2.7841235e+03   2.7782250e+03   2.7795320e+03   2.7783730e+03   2.7772437e+03   2.7886170e+03   2.7917655e+03   2.7738054e+03   2.7733748e+03   2.7848255e+03   2.7799569e+03   2.7863820e+03   2.7704686e+03   2.7751301e+03   2.7694208e+03   2.7688950e+03   2.7798018e+03   2.7742448e+03   2.7689185e+03   2.7773987e+03   2.7683895e+03   2.7726951e+03   2.7733286e+03   2.7691355e+03   2.7681971e+03   2.7723100e+03   2.7698425e+03   2.7672703e+03   2.7737059e+03   2.7677103e+03   2.7732098e+03   2.7729048e+03   2.7706636e+03   2.7730456e+03   2.7645838e+03   2.7647638e+03   2.7639822e+03   2.7638601e+03   2.7654349e+03   2.7745493e+03   2.7638711e+03   2.7625141e+03   2.7660000e+03   2.7695431e+03   2.7618778e+03   2.7616088e+03   2.7751148e+03   2.7629781e+03   2.7709142e+03   2.7610291e+03   2.7635193e+03   2.7636207e+03   2.7681076e+03   2.7630500e+03   2.7641338e+03   2.7623862e+03   2.7605442e+03   2.7643238e+03   2.7572154e+03   2.7529699e+03   2.7536941e+03   2.7528454e+03   2.7542246e+03   2.7690115e+03   2.7619871e+03   2.7508183e+03   2.7553834e+03   2.7709309e+03   2.7561156e+03   2.7570049e+03   2.7600179e+03   2.7612787e+03   2.7642775e+03   2.7700715e+03   2.7674308e+03   2.7642070e+03   2.7676204e+03   2.7636120e+03   2.7638920e+03   2.7616080e+03   2.7632534e+03   2.7666443e+03   2.7613765e+03   2.7694632e+03   2.7785464e+03   2.7618038e+03   2.7791242e+03   2.7778211e+03   2.7635048e+03   2.7645123e+03   2.7624909e+03   2.7787541e+03   2.7748495e+03   2.7628513e+03   2.7771321e+03   2.7759835e+03   2.7627283e+03   2.7679423e+03   2.7699799e+03
2.8110690e+03   2.7866489e+03   2.7821086e+03   2.7826085e+03   2.7828179e+03   2.7819036e+03   2.7808129e+03   2.7800530e+03   2.7803012e+03   2.7793061e+03   2.7787050e+03   2.7779473e+03   2.7770596e+03   2.7774278e+03   2.7761653e+03   2.7759588e+03   2.7764894e+03   2.7773432e+03   2.7942894e+03   2.7811230e+03   2.7785304e+03   2.7729005e+03   2.7791304e+03   2.7714179e+03   2.7729996e+03   2.7756390e+03   2.7733420e+03   2.7688794e+03   2.7698893e+03   2.7692198e+03   2.7783749e+03   2.7686122e+03   2.7685375e+03   2.7684197e+03   2.7837565e+03   2.7680840e+03   2.7717291e+03   2.7674970e+03   2.7722997e+03   2.7675040e+03   2.7746303e+03   2.7724685e+03   2.7677614e+03   2.7657362e+03   2.7758185e+03   2.7647528e+03   2.7732261e+03   2.7764340e+03   2.7640662e+03   2.7643082e+03   2.7631478e+03   2.7646841e+03   2.7672548e+03   2.7668977e+03   2.7621413e+03   2.7672192e+03   2.7628881e+03   2.7676994e+03   2.7625339e+03   2.7610878e+03   2.7609099e+03   2.7703542e+03   2.7606546e+03   2.7604738e+03   2.7619397e+03   2.7667486e+03   2.7624518e+03   2.7612409e+03   2.7606423e+03   2.7707048e+03   2.7580862e+03   2.7715285e+03   2.7695898e+03   2.7524862e+03   2.7628264e+03   2.7543568e+03   2.7631944e+03   2.7632569e+03   2.7554235e+03   2.7531006e+03   2.7622035e+03   2.7654618e+03   2.7598411e+03   2.7609970e+03   2.7574627e+03   2.7595251e+03   2.7689525e+03   2.7718392e+03   2.7646001e+03   2.7603467e+03   2.7690481e+03   2.7722526e+03   2.7742986e+03   2.7724344e+03   2.7719192e+03   2.7609479e+03   2.7735511e+03   2.7715450e+03   2.7695186e+03   2.7670195e+03   2.7618480e+03   2.7681880e+03   2.7711910e+03   2.7622094e+03   2.7688844e+03   2.7745567e+03   2.7692058e+03   2.7679389e+03   2.7771251e+03   2.7752476e+03   2.7713071e+03
2.8062298e+03   2.7834177e+03   2.7823688e+03   2.7819727e+03   2.7823285e+03   2.7810341e+03   2.7810946e+03   2.7812522e+03   2.7798310e+03   2.7793284e+03   2.7833059e+03   2.7776813e+03   2.7803401e+03   2.7771596e+03   2.7815696e+03   2.7764587e+03   2.7933082e+03   2.7748403e+03   2.7776877e+03   2.7876120e+03   2.7804599e+03   2.7776914e+03   2.7806432e+03   2.7869570e+03   2.7718416e+03   2.7786603e+03   2.7703870e+03   2.7692117e+03   2.7690854e+03   2.7692712e+03   2.7689054e+03   2.7685034e+03   2.7680673e+03   2.7698308e+03   2.7780268e+03   2.7776507e+03   2.7848985e+03   2.7816926e+03   2.7741998e+03   2.7695427e+03   2.7695415e+03   2.7674707e+03   2.7657768e+03   2.7701699e+03   2.7648980e+03   2.7650835e+03   2.7707778e+03   2.7666683e+03   2.7675879e+03   2.7707779e+03   2.7721802e+03   2.7729120e+03   2.7655961e+03   2.7629797e+03   2.7621083e+03   2.7650160e+03   2.7687066e+03   2.7630048e+03   2.7613569e+03   2.7664603e+03   2.7607667e+03   2.7606455e+03   2.7728305e+03   2.7621262e+03   2.7680393e+03   2.7624443e+03   2.7666952e+03   2.7616151e+03   2.7602780e+03   2.7726112e+03   2.7583897e+03   2.7663075e+03   2.7569699e+03   2.7526300e+03   2.7536244e+03   2.7571236e+03   2.7732443e+03   2.7548258e+03   2.7515831e+03   2.7552055e+03   2.7538585e+03   2.7598005e+03   2.7580550e+03   2.7567434e+03   2.7592343e+03   2.7572210e+03   2.7588337e+03   2.7669811e+03   2.7648661e+03   2.7595814e+03   2.7766016e+03   2.7647406e+03   2.7684514e+03   2.7713893e+03   2.7674724e+03   2.7676620e+03   2.7656330e+03   2.7644630e+03   2.7679068e+03   2.7676717e+03   2.7614707e+03   2.7658151e+03   2.7661418e+03   2.7619821e+03   2.7620896e+03   2.7627116e+03   2.7622936e+03   2.7609567e+03   2.7649510e+03   2.7638468e+03   2.7726343e+03
2.8013905e+03   2.7832092e+03   2.7827551e+03   2.7824877e+03   2.7825234e+03   2.7821356e+03   2.7810783e+03   2.7813594e+03   2.7789922e+03   2.7794341e+03   2.7779455e+03   2.7894546e+03   2.7957491e+03   2.7775076e+03   2.7819541e+03   2.7821883e+03   2.7837079e+03   2.7784760e+03   2.7758190e+03   2.7874318e+03   2.7744064e+03   2.7838039e+03   2.7741448e+03   2.7719001e+03   2.7862448e+03   2.7708678e+03   2.7698322e+03   2.7699143e+03   2.7690129e+03   2.7688190e+03   2.7685963e+03   2.7684988e+03   2.7682606e+03   2.7676747e+03   2.7677882e+03   2.7676895e+03   2.7680680e+03   2.7671333e+03   2.7671790e+03   2.7663963e+03   2.7665734e+03   2.7665030e+03   2.7755962e+03   2.7650785e+03   2.7718468e+03   2.7641273e+03   2.7669990e+03   2.7726433e+03   2.7716908e+03   2.7696772e+03   2.7629041e+03   2.7704739e+03   2.7622928e+03   2.7621911e+03   2.7662621e+03   2.7626162e+03   2.7613729e+03   2.7643537e+03   2.7610608e+03   2.7608321e+03   2.7670197e+03   2.7605688e+03   2.7604169e+03   2.7603065e+03   2.7602376e+03   2.7606131e+03   2.7715077e+03   2.7614879e+03   2.7703127e+03   2.7600834e+03   2.7589921e+03   2.7565730e+03   2.7544800e+03   2.7603486e+03   2.7528386e+03   2.7517428e+03   2.7514244e+03   2.7670860e+03   2.7678348e+03   2.7498433e+03   2.7499423e+03   2.7599034e+03   2.7652381e+03   2.7730475e+03   2.7568174e+03   2.7646097e+03   2.7573025e+03   2.7615039e+03   2.7665734e+03   2.7592998e+03   2.7594783e+03   2.7608490e+03   2.7755591e+03   2.7613236e+03   2.7723950e+03   2.7645672e+03             NaN   2.7774276e+03   2.7694788e+03   2.7725097e+03   2.7653112e+03   2.7671633e+03   2.7764964e+03   2.7613922e+03   2.7613409e+03   2.7649037e+03   2.7611879e+03   2.7756134e+03   2.7617974e+03   2.7791655e+03   2.7739616e+03
2.7965512e+03   2.7834090e+03   2.7831366e+03   2.7831016e+03   2.7826993e+03   2.7834518e+03   2.7819325e+03   2.7806544e+03   2.7794411e+03   2.7823575e+03   2.7885948e+03   2.7905672e+03   2.7935381e+03   2.7794882e+03   2.7839374e+03   2.7767795e+03   2.7889696e+03   2.7754356e+03   2.7875967e+03   2.7755811e+03   2.7809816e+03   2.7783646e+03   2.7726072e+03   2.7718468e+03   2.7805668e+03   2.7783518e+03   2.7704505e+03   2.7699314e+03   2.7692564e+03   2.7690216e+03   2.7688444e+03   2.7685879e+03   2.7688719e+03   2.7675631e+03   2.7674664e+03   2.7675870e+03   2.7674611e+03   2.7671080e+03   2.7669106e+03   2.7713883e+03   2.7661908e+03   2.7656049e+03   2.7725683e+03   2.7775266e+03   2.7648553e+03   2.7641567e+03   2.7777244e+03   2.7635440e+03   2.7720843e+03   2.7674916e+03   2.7627245e+03   2.7624790e+03   2.7622705e+03   2.7625457e+03   2.7619464e+03   2.7684722e+03   2.7701802e+03   2.7619171e+03   2.7611778e+03   2.7608995e+03   2.7606294e+03   2.7611536e+03   2.7605588e+03   2.7601676e+03   2.7600354e+03   2.7636749e+03   2.7601595e+03   2.7661644e+03   2.7620326e+03   2.7600194e+03   2.7595464e+03   2.7634798e+03   2.7682745e+03   2.7538088e+03   2.7554583e+03   2.7517521e+03   2.7514483e+03   2.7514436e+03   2.7582640e+03   2.7527099e+03   2.7701622e+03   2.7513139e+03   2.7589552e+03   2.7621756e+03   2.7596598e+03   2.7562516e+03   2.7583723e+03   2.7663492e+03   2.7617462e+03   2.7588552e+03   2.7636414e+03   2.7589614e+03   2.7709982e+03   2.7643361e+03   2.7728025e+03   2.7619413e+03   2.7692316e+03   2.7652768e+03   2.7681036e+03   2.7713292e+03   2.7684066e+03   2.7678412e+03   2.7724276e+03   2.7706591e+03   2.7677770e+03   2.7710075e+03   2.7681987e+03   2.7641270e+03   2.7695658e+03   2.7657019e+03   2.7737722e+03
2.7917120e+03   2.7837878e+03   2.7833593e+03   2.7829787e+03   2.7825089e+03   2.7820462e+03   2.7825211e+03   2.7807805e+03   2.7816685e+03   2.7848143e+03   2.7805178e+03   2.7942654e+03   2.7790211e+03   2.7890660e+03   2.7788299e+03   2.7853460e+03   2.7876753e+03   2.7861425e+03   2.7753679e+03   2.7743109e+03   2.7734757e+03   2.7870099e+03   2.7789818e+03   2.7720193e+03   2.7800323e+03   2.7778990e+03   2.7883884e+03   2.7807294e+03   2.7816754e+03   2.7704543e+03   2.7706369e+03   2.7688770e+03   2.7686928e+03   2.7681806e+03   2.7681106e+03   2.7675307e+03   2.7674405e+03   2.7675391e+03   2.7669302e+03   2.7687858e+03   2.7715878e+03   2.7680514e+03   2.7745463e+03   2.7694239e+03   2.7687410e+03   2.7641580e+03   2.7637188e+03   2.7660128e+03   2.7633624e+03   2.7629976e+03   2.7737557e+03   2.7797192e+03   2.7623898e+03   2.7644011e+03   2.7620210e+03   2.7617434e+03   2.7714503e+03   2.7612749e+03   2.7710701e+03   2.7609390e+03   2.7614061e+03   2.7614067e+03   2.7602760e+03   2.7622211e+03   2.7702152e+03   2.7606046e+03   2.7619567e+03   2.7614814e+03   2.7617953e+03   2.7600182e+03   2.7671969e+03   2.7674151e+03   2.7571489e+03   2.7627507e+03   2.7568967e+03   2.7686813e+03   2.7510791e+03   2.7634608e+03   2.7601003e+03   2.7600004e+03   2.7568548e+03   2.7490075e+03   2.7569758e+03   2.7597570e+03   2.7556918e+03   2.7612533e+03   2.7582677e+03   2.7566813e+03   2.7575866e+03   2.7714205e+03   2.7650437e+03   2.7735314e+03   2.7697420e+03   2.7684831e+03   2.7704744e+03   2.7735556e+03   2.7635787e+03   2.7763647e+03   2.7774194e+03   2.7701077e+03   2.7673211e+03   2.7602921e+03   2.7688524e+03   2.7604768e+03   2.7604529e+03   2.7624936e+03   2.7622117e+03   2.7609073e+03   2.7609373e+03   2.7671561e+03   2.7732037e+03
2.7868727e+03   2.7841586e+03   2.7840906e+03   2.7830934e+03   2.7827675e+03   2.7824891e+03   2.7818158e+03   2.7816525e+03   2.7828120e+03   2.7963861e+03   2.7858510e+03   2.7934734e+03   2.7818986e+03   2.7992930e+03   2.7799186e+03   2.7791902e+03   2.7852459e+03   2.7874523e+03   2.7775648e+03   2.7846913e+03   2.7848720e+03   2.7802377e+03   2.7889860e+03   2.7742291e+03   2.7779937e+03   2.7750126e+03   2.7823069e+03   2.7864676e+03   2.7781607e+03   2.7757445e+03   2.7716735e+03   2.7687565e+03   2.7685496e+03   2.7686813e+03   2.7677009e+03   2.7678762e+03   2.7678731e+03   2.7697266e+03   2.7669812e+03   2.7666999e+03   2.7648468e+03   2.7773690e+03   2.7827635e+03   2.7691859e+03   2.7646589e+03   2.7642829e+03   2.7819430e+03   2.7636778e+03   2.7664838e+03   2.7701642e+03   2.7629182e+03   2.7626266e+03   2.7626370e+03   2.7620481e+03   2.7621933e+03   2.7628883e+03   2.7675045e+03   2.7681268e+03   2.7754209e+03   2.7606449e+03   2.7604627e+03   2.7611060e+03   2.7603735e+03   2.7727214e+03   2.7661445e+03   2.7659882e+03   2.7597042e+03   2.7651069e+03   2.7598540e+03   2.7605288e+03   2.7609075e+03   2.7591957e+03   2.7591573e+03   2.7564308e+03   2.7583771e+03   2.7743874e+03   2.7540696e+03   2.7503178e+03   2.7501165e+03   2.7503027e+03   2.7524771e+03   2.7495252e+03   2.7485170e+03   2.7568274e+03   2.7591691e+03   2.7591689e+03   2.7589584e+03   2.7675568e+03   2.7615161e+03   2.7567353e+03   2.7646657e+03   2.7646062e+03   2.7661929e+03   2.7706035e+03   2.7620296e+03   2.7628834e+03   2.7698693e+03   2.7671031e+03   2.7634108e+03   2.7706836e+03   2.7615549e+03   2.7642255e+03   2.7724101e+03   2.7641809e+03   2.7603727e+03   2.7738790e+03   2.7675384e+03   2.7746158e+03   2.7643126e+03   2.7727271e+03   2.7726352e+03
2.7866793e+03   2.7849955e+03   2.7959817e+03   2.7844786e+03   2.7831057e+03   2.7916914e+03   2.7928028e+03   2.8000757e+03   2.7824205e+03   2.7875710e+03   2.7943030e+03   2.7823295e+03   2.7920744e+03   2.7816050e+03   2.7810790e+03   2.7826956e+03   2.7799306e+03   2.7888870e+03   2.7800287e+03   2.7853749e+03   2.7823755e+03   2.7746373e+03   2.7744839e+03   2.7867444e+03   2.7804275e+03   2.7785920e+03   2.7785806e+03   2.7897253e+03   2.7775772e+03   2.7870623e+03   2.7828306e+03   2.7686360e+03   2.7683478e+03   2.7680817e+03   2.7677611e+03   2.7677094e+03   2.7674331e+03   2.7673223e+03   2.7695787e+03   2.7663869e+03   2.7655625e+03   2.7650919e+03   2.7729187e+03   2.7671811e+03   2.7686496e+03   2.7643634e+03   2.7682660e+03   2.7670637e+03   2.7790408e+03   2.7630544e+03   2.7626117e+03   2.7715826e+03   2.7624119e+03   2.7620735e+03   2.7617315e+03   2.7614578e+03   2.7725375e+03   2.7836336e+03   2.7661515e+03   2.7628479e+03   2.7603515e+03   2.7602691e+03   2.7704090e+03   2.7594971e+03   2.7601490e+03   2.7644956e+03   2.7594782e+03   2.7608267e+03   2.7595953e+03   2.7595286e+03   2.7591709e+03   2.7590135e+03   2.7584979e+03   2.7586101e+03   2.7641956e+03   2.7585822e+03   2.7650497e+03   2.7502648e+03   2.7503457e+03   2.7503066e+03   2.7515451e+03   2.7498310e+03   2.7510650e+03   2.7484184e+03   2.7514604e+03   2.7623353e+03   2.7547345e+03   2.7591619e+03   2.7661439e+03   2.7603487e+03   2.7577414e+03   2.7583902e+03   2.7620286e+03   2.7636749e+03   2.7702636e+03   2.7680168e+03   2.7675680e+03   2.7693129e+03   2.7753503e+03   2.7759730e+03   2.7628777e+03   2.7599190e+03   2.7627117e+03   2.7624939e+03   2.7736483e+03   2.7627704e+03   2.7602534e+03   2.7736057e+03   2.7602420e+03   2.7619829e+03   2.7704976e+03
2.7889875e+03   2.7858618e+03   2.7867434e+03   2.7849877e+03   2.7902514e+03   2.7941445e+03   2.7924664e+03   2.7949001e+03   2.8006264e+03   2.7838519e+03   2.7847532e+03   2.7860493e+03   2.7889654e+03   2.7839335e+03   2.7830182e+03   2.7918754e+03   2.7976033e+03   2.7948492e+03   2.7802119e+03   2.7803951e+03   2.7782470e+03   2.7897370e+03   2.7749215e+03   2.7799930e+03   2.7802168e+03   2.7749978e+03   2.7708880e+03   2.7873372e+03   2.7699558e+03   2.7743767e+03   2.7784284e+03   2.7798318e+03   2.7684603e+03   2.7679691e+03   2.7675504e+03   2.7674932e+03   2.7671009e+03   2.7670725e+03   2.7686492e+03   2.7667477e+03   2.7659919e+03   2.7649285e+03   2.7685347e+03   2.7673466e+03   2.7643384e+03   2.7707612e+03   2.7722718e+03   2.7678009e+03   2.7646222e+03   2.7632337e+03   2.7636093e+03   2.7626821e+03   2.7640665e+03   2.7741777e+03   2.7620172e+03   2.7751205e+03   2.7700275e+03   2.7607705e+03   2.7609731e+03   2.7610193e+03   2.7658157e+03   2.7665477e+03   2.7612119e+03   2.7597156e+03   2.7594517e+03   2.7663877e+03   2.7592406e+03   2.7593424e+03   2.7604397e+03   2.7593174e+03   2.7595429e+03   2.7589056e+03   2.7647898e+03   2.7636810e+03   2.7572814e+03   2.7637628e+03   2.7573296e+03   2.7509510e+03   2.7499722e+03   2.7500814e+03   2.7506677e+03   2.7498112e+03   2.7506724e+03   2.7616272e+03   2.7478272e+03   2.7631967e+03   2.7631541e+03   2.7609254e+03   2.7558796e+03   2.7560305e+03   2.7620784e+03   2.7575671e+03   2.7574795e+03   2.7686059e+03   2.7723188e+03   2.7641142e+03   2.7629184e+03   2.7581157e+03   2.7663635e+03   2.7581515e+03   2.7623750e+03   2.7697843e+03   2.7757376e+03   2.7592180e+03   2.7657634e+03   2.7591825e+03   2.7594055e+03   2.7601648e+03   2.7702219e+03   2.7614278e+03   2.7669687e+03
2.7912957e+03   2.7852828e+03   2.7854308e+03   2.7936150e+03   2.7844651e+03   2.7841511e+03   2.7904474e+03   2.7837396e+03   2.7922073e+03   2.7836616e+03   2.7839377e+03   2.7840864e+03   2.7845092e+03   2.7839862e+03   2.7905087e+03   2.7861102e+03   2.7945767e+03   2.7858428e+03   2.7906200e+03   2.7919920e+03   2.7853455e+03   2.7777117e+03   2.7823908e+03   2.7804472e+03   2.7913437e+03   2.7883527e+03   2.7729826e+03   2.7711361e+03   2.7781295e+03   2.7723497e+03   2.7736229e+03   2.7709299e+03   2.7694292e+03   2.7812232e+03   2.7672417e+03   2.7688344e+03   2.7672784e+03   2.7666461e+03   2.7664711e+03   2.7665697e+03   2.7658959e+03   2.7658270e+03   2.7653840e+03   2.7650277e+03   2.7643816e+03   2.7642958e+03   2.7640224e+03   2.7634997e+03   2.7629668e+03   2.7624369e+03   2.7629888e+03   2.7688022e+03   2.7620813e+03   2.7685945e+03   2.7620891e+03   2.7629443e+03   2.7611036e+03   2.7608633e+03   2.7603053e+03   2.7599273e+03   2.7595815e+03   2.7752656e+03   2.7598426e+03   2.7740291e+03   2.7595119e+03   2.7667904e+03   2.7588646e+03   2.7610912e+03   2.7728266e+03   2.7651741e+03   2.7609681e+03   2.7586245e+03   2.7673274e+03   2.7590454e+03   2.7648818e+03   2.7686465e+03   2.7549111e+03   2.7561026e+03   2.7604115e+03   2.7514710e+03   2.7499913e+03   2.7499754e+03   2.7508500e+03   2.7530317e+03   2.7479562e+03   2.7486626e+03   2.7627537e+03   2.7558546e+03   2.7581507e+03   2.7623484e+03   2.7606088e+03   2.7572217e+03   2.7580306e+03   2.7673824e+03   2.7604179e+03   2.7576019e+03   2.7646962e+03   2.7662056e+03   2.7579161e+03   2.7702042e+03   2.7642418e+03   2.7710479e+03   2.7728803e+03   2.7721078e+03   2.7595475e+03   2.7678801e+03   2.7727862e+03   2.7589934e+03   2.7650667e+03   2.7597993e+03   2.7634397e+03
2.7936039e+03   2.7861197e+03   2.7856698e+03   2.7947048e+03   2.7853317e+03   2.8009942e+03   2.7846263e+03   2.7855174e+03   2.7929569e+03   2.7996467e+03   2.7862948e+03   2.7927116e+03   2.7936881e+03   2.7898516e+03   2.7913521e+03   2.7848230e+03   2.7887644e+03   2.7846814e+03   2.7874009e+03   2.7826803e+03   2.7834833e+03   2.7858218e+03   2.7785280e+03   2.7761609e+03   2.7746828e+03   2.7809841e+03   2.7768582e+03   2.7808228e+03   2.7736904e+03   2.7785862e+03   2.7705902e+03   2.7696506e+03   2.7816545e+03   2.7680933e+03   2.7704035e+03   2.7674564e+03   2.7683475e+03   2.7666230e+03   2.7664908e+03   2.7658967e+03   2.7660741e+03   2.7664297e+03   2.7656958e+03   2.7651759e+03   2.7645092e+03   2.7641609e+03   2.7638188e+03   2.7629048e+03   2.7626486e+03   2.7629908e+03   2.7627301e+03   2.7617743e+03   2.7613456e+03   2.7618006e+03   2.7639412e+03   2.7624033e+03   2.7610216e+03   2.7607862e+03   2.7603487e+03   2.7600229e+03   2.7610736e+03   2.7622233e+03   2.7592922e+03   2.7592782e+03   2.7593428e+03   2.7743745e+03   2.7622717e+03   2.7587146e+03   2.7594549e+03   2.7588129e+03   2.7700502e+03   2.7584075e+03   2.7582700e+03   2.7654944e+03   2.7633714e+03   2.7690875e+03   2.7652238e+03   2.7564019e+03   2.7564755e+03   2.7517803e+03   2.7515262e+03   2.7496710e+03   2.7495575e+03   2.7509987e+03   2.7538987e+03   2.7473488e+03   2.7524657e+03   2.7509945e+03   2.7560855e+03   2.7637414e+03   2.7566555e+03   2.7645260e+03   2.7624996e+03   2.7568385e+03   2.7626189e+03   2.7571283e+03   2.7590410e+03   2.7699282e+03   2.7575464e+03   2.7640183e+03   2.7584812e+03   2.7639512e+03   2.7744469e+03   2.7643092e+03   2.7622709e+03   2.7657821e+03   2.7704231e+03   2.7735464e+03   2.7622742e+03   2.7593926e+03   2.7599107e+03
2.7959121e+03   2.7865425e+03   2.7863425e+03   2.7945560e+03   2.8018703e+03   2.7963262e+03   2.7858721e+03   2.7925884e+03   2.7885027e+03   2.7972444e+03   2.7922326e+03   2.8000353e+03   2.7884962e+03   2.7887043e+03   2.7918628e+03   2.7943294e+03   2.7937249e+03   2.7852445e+03   2.8009990e+03   2.7844305e+03   2.7847394e+03   2.7894463e+03   2.7843002e+03   2.7836046e+03   2.7937328e+03   2.7752513e+03   2.7775157e+03   2.7779198e+03   2.7792669e+03   2.7816333e+03   2.7737148e+03   2.7830177e+03   2.7708516e+03   2.7719364e+03   2.7836951e+03   2.7674758e+03   2.7670359e+03   2.7668841e+03   2.7663734e+03   2.7674671e+03   2.7658380e+03   2.7663233e+03   2.7656025e+03   2.7654599e+03   2.7646140e+03   2.7642292e+03   2.7640553e+03   2.7641529e+03   2.7633037e+03   2.7626869e+03   2.7626187e+03   2.7671558e+03   2.7689424e+03   2.7641532e+03   2.7610009e+03   2.7623896e+03   2.7608535e+03   2.7606137e+03   2.7791201e+03   2.7601369e+03   2.7597532e+03   2.7595260e+03   2.7621652e+03   2.7689810e+03   2.7591707e+03   2.7615375e+03   2.7697580e+03   2.7611987e+03   2.7583631e+03   2.7651142e+03   2.7585116e+03   2.7579525e+03   2.7583337e+03   2.7578332e+03   2.7572144e+03   2.7560714e+03   2.7682118e+03   2.7541328e+03   2.7613119e+03   2.7602049e+03   2.7685493e+03   2.7490121e+03   2.7485665e+03   2.7492846e+03   2.7503673e+03   2.7503692e+03   2.7573906e+03   2.7588097e+03   2.7566773e+03   2.7661214e+03   2.7599177e+03   2.7627335e+03   2.7628604e+03   2.7565127e+03   2.7669387e+03   2.7590185e+03   2.7673164e+03   2.7728073e+03   2.7572582e+03   2.7685911e+03   2.7718755e+03   2.7662877e+03   2.7699351e+03   2.7597264e+03   2.7713472e+03   2.7606291e+03   2.7745302e+03   2.7583570e+03   2.7601882e+03   2.7675062e+03             NaN
2.7982203e+03   2.7894667e+03   2.7873613e+03   2.7896990e+03   2.7933642e+03   2.7937209e+03   2.7894303e+03   2.7869286e+03   2.7935791e+03   2.7953537e+03   2.7896650e+03   2.7963545e+03   2.7884395e+03   2.7889949e+03   2.7968866e+03   2.8034556e+03   2.8028479e+03   2.7867486e+03   2.7904943e+03   2.7864700e+03   2.7977661e+03   2.8001428e+03   2.7857125e+03   2.7900031e+03   2.7891542e+03   2.7817721e+03   2.7774242e+03   2.7753542e+03   2.7761228e+03   2.7772941e+03   2.7741064e+03   2.7785455e+03   2.7732627e+03   2.7736818e+03   2.7703210e+03   2.7815453e+03   2.7676671e+03   2.7672865e+03   2.7690261e+03   2.7663618e+03   2.7657944e+03   2.7658593e+03   2.7660288e+03   2.7649458e+03   2.7646414e+03   2.7649571e+03   2.7643293e+03   2.7638114e+03   2.7634098e+03   2.7635034e+03   2.7625020e+03   2.7620433e+03   2.7623812e+03   2.7616053e+03   2.7768802e+03   2.7622671e+03   2.7609844e+03   2.7711014e+03   2.7730243e+03   2.7600363e+03   2.7596859e+03   2.7592680e+03   2.7632676e+03   2.7716347e+03   2.7588790e+03   2.7707015e+03   2.7602907e+03   2.7757306e+03   2.7595319e+03   2.7682406e+03   2.7584350e+03   2.7621469e+03   2.7578464e+03   2.7583195e+03   2.7618914e+03   2.7653350e+03   2.7577877e+03   2.7602153e+03   2.7535333e+03   2.7609397e+03   2.7552860e+03   2.7690755e+03   2.7490962e+03   2.7484298e+03   2.7484557e+03   2.7513640e+03   2.7465548e+03   2.7497904e+03   2.7520816e+03   2.7569184e+03   2.7519819e+03   2.7613469e+03   2.7568291e+03   2.7566725e+03   2.7600874e+03   2.7656905e+03   2.7608224e+03   2.7580336e+03   2.7623951e+03   2.7706270e+03   2.7609225e+03   2.7581598e+03   2.7669300e+03   2.7640369e+03   2.7579778e+03   2.7637029e+03   2.7693497e+03   2.7599309e+03   2.7583555e+03   2.7629866e+03             NaN
2.8005285e+03   2.7930164e+03   2.7921406e+03   2.7977117e+03   2.8003133e+03   2.8000453e+03   2.7994814e+03   2.7992857e+03   2.8037577e+03   2.8032246e+03   2.7884629e+03   2.7887380e+03   2.7884638e+03   2.7988997e+03   2.7898158e+03   2.7976228e+03   2.8019196e+03   2.7901886e+03   2.7883845e+03   2.7878770e+03   2.7875049e+03   2.7961472e+03   2.7985350e+03   2.7957209e+03   2.7881654e+03   2.7843882e+03   2.7964363e+03   2.7903376e+03   2.7768962e+03   2.7849085e+03   2.7778063e+03   2.7816381e+03   2.7753168e+03   2.7802204e+03   2.7762832e+03   2.7842539e+03   2.7709906e+03   2.7775169e+03   2.7739637e+03   2.7725335e+03   2.7656209e+03   2.7654817e+03   2.7656890e+03   2.7648675e+03   2.7646151e+03   2.7646895e+03   2.7645833e+03   2.7641069e+03   2.7712180e+03   2.7641423e+03   2.7685909e+03   2.7661202e+03   2.7729350e+03   2.7615089e+03   2.7655795e+03   2.7610880e+03   2.7646332e+03   2.7603824e+03   2.7602685e+03   2.7621800e+03   2.7595709e+03   2.7590746e+03   2.7589357e+03   2.7588953e+03   2.7591105e+03   2.7609880e+03   2.7609749e+03   2.7661391e+03   2.7578267e+03   2.7740981e+03   2.7607035e+03   2.7664031e+03   2.7576645e+03   2.7574386e+03   2.7638133e+03   2.7562335e+03   2.7555402e+03   2.7551711e+03   2.7648911e+03   2.7661891e+03   2.7601146e+03   2.7502250e+03   2.7496869e+03   2.7485424e+03   2.7484490e+03   2.7498190e+03   2.7488875e+03   2.7490328e+03   2.7493501e+03   2.7498719e+03   2.7504530e+03   2.7512177e+03   2.7552052e+03   2.7556521e+03   2.7569120e+03   2.7574525e+03   2.7587160e+03   2.7648996e+03   2.7565109e+03   2.7735824e+03   2.7571782e+03   2.7596661e+03   2.7666750e+03   2.7580065e+03   2.7572695e+03   2.7587996e+03   2.7728663e+03   2.7587686e+03   2.7580458e+03   2.7587646e+03             NaN
2.8028367e+03   2.8130343e+03   2.7903354e+03   2.7929046e+03   2.7900739e+03   2.7904664e+03   2.7993248e+03   2.7906661e+03   2.7970474e+03   2.7900811e+03   2.8034660e+03   2.8027069e+03   2.7902040e+03   2.8009670e+03   2.7936636e+03   2.7943487e+03   2.8058203e+03   2.8049802e+03   2.7900357e+03   2.8009445e+03   2.7892114e+03   2.7899514e+03   2.7974503e+03   2.7871412e+03   2.7860016e+03   2.7879836e+03   2.7944323e+03   2.7900371e+03   2.7833390e+03   2.7921680e+03   2.7896472e+03   2.7890965e+03   2.7791088e+03   2.7750537e+03   2.7753561e+03   2.7870709e+03   2.7742396e+03   2.7759582e+03   2.7848402e+03   2.7680178e+03   2.7773973e+03   2.7658809e+03   2.7660100e+03   2.7729409e+03   2.7658543e+03   2.7645645e+03   2.7794513e+03   2.7680154e+03   2.7698965e+03   2.7722691e+03   2.7787946e+03   2.7672751e+03   2.7697721e+03   2.7660131e+03   2.7623707e+03   2.7667363e+03   2.7606175e+03   2.7605638e+03   2.7601480e+03   2.7625859e+03   2.7595384e+03   2.7589728e+03   2.7619925e+03   2.7634191e+03   2.7585228e+03   2.7583226e+03   2.7582023e+03   2.7579246e+03   2.7580643e+03   2.7578652e+03   2.7585258e+03   2.7647457e+03   2.7572828e+03   2.7575054e+03   2.7573681e+03   2.7562916e+03   2.7589028e+03   2.7550904e+03   2.7639047e+03   2.7663118e+03   2.7570454e+03   2.7648422e+03   2.7513349e+03   2.7496104e+03   2.7549836e+03   2.7510909e+03   2.7511785e+03   2.7488611e+03   2.7490757e+03   2.7491890e+03   2.7488498e+03   2.7528721e+03   2.7519684e+03   2.7579184e+03   2.7554954e+03   2.7657438e+03   2.7590662e+03   2.7562828e+03   2.7576987e+03   2.7661204e+03   2.7646512e+03   2.7566209e+03   2.7617255e+03   2.7680196e+03   2.7726316e+03   2.7733771e+03   2.7588867e+03   2.7694197e+03   2.7676414e+03   2.7578777e+03             NaN
2.8051448e+03   2.7974092e+03   2.7942163e+03   2.8042420e+03   2.7951443e+03   2.7979438e+03   2.8049164e+03   2.7921745e+03   2.8068981e+03   2.7958412e+03   2.7983995e+03   2.7915625e+03   2.8090395e+03   2.7919561e+03   2.7917506e+03   2.8051283e+03   2.8004397e+03   2.7982844e+03   2.7913928e+03   2.8055257e+03   2.7992021e+03   2.7903023e+03   2.7892882e+03   2.7904653e+03   2.7983731e+03   2.7868206e+03   2.7857815e+03   2.7944432e+03   2.7846647e+03   2.7959440e+03   2.7801041e+03   2.7887784e+03   2.7781771e+03   2.7813816e+03   2.7775271e+03   2.7881302e+03   2.7756487e+03   2.7735578e+03   2.7724190e+03   2.7815481e+03   2.7806310e+03   2.7710783e+03   2.7815123e+03   2.7749938e+03   2.7698986e+03   2.7663482e+03   2.7690948e+03   2.7677719e+03   2.7671783e+03   2.7671863e+03   2.7754760e+03   2.7643924e+03   2.7658375e+03   2.7615342e+03   2.7660694e+03   2.7614882e+03   2.7613784e+03   2.7737570e+03   2.7609874e+03   2.7597996e+03   2.7592523e+03   2.7645644e+03   2.7666924e+03   2.7625531e+03   2.7593833e+03   2.7582307e+03   2.7580207e+03   2.7578937e+03   2.7575367e+03   2.7575895e+03   2.7571754e+03   2.7616914e+03   2.7568275e+03   2.7572022e+03   2.7567786e+03   2.7627507e+03   2.7561589e+03   2.7609755e+03   2.7562718e+03   2.7534411e+03   2.7512397e+03   2.7540229e+03   2.7521015e+03   2.7496234e+03   2.7596129e+03   2.7478322e+03   2.7475949e+03   2.7503745e+03   2.7521221e+03   2.7489343e+03   2.7479974e+03   2.7655671e+03   2.7562930e+03   2.7526964e+03   2.7633209e+03   2.7575034e+03   2.7563706e+03   2.7582340e+03   2.7592193e+03   2.7694523e+03   2.7668580e+03   2.7558911e+03   2.7677404e+03   2.7606866e+03   2.7677976e+03   2.7706663e+03   2.7607125e+03   2.7591382e+03   2.7694016e+03   2.7700143e+03             NaN
2.8074530e+03   2.7944860e+03   2.8091642e+03   2.7982105e+03   2.8000512e+03   2.7955848e+03   2.7934347e+03   2.8056940e+03   2.8069251e+03   2.8073152e+03   2.7934545e+03   2.7952680e+03   2.7930360e+03   2.8107110e+03   2.7997757e+03   2.7996679e+03   2.7951395e+03   2.7953562e+03   2.8060408e+03   2.7925600e+03   2.7964858e+03   2.7959661e+03   2.7931571e+03   2.7897909e+03   2.7935032e+03   2.7889391e+03   2.7883433e+03   2.7919269e+03   2.7859582e+03   2.7945260e+03   2.7838341e+03   2.7823794e+03   2.7860511e+03   2.7856623e+03   2.7913030e+03   2.7808141e+03   2.7833648e+03   2.7811861e+03   2.7762945e+03   2.7744406e+03   2.7769267e+03   2.7724131e+03   2.7707075e+03   2.7702940e+03   2.7686490e+03   2.7680227e+03   2.7717870e+03   2.7681468e+03   2.7686142e+03   2.7687054e+03   2.7765701e+03   2.7672490e+03   2.7680178e+03   2.7778269e+03   2.7624291e+03   2.7613480e+03   2.7604254e+03   2.7593280e+03   2.7670230e+03   2.7664243e+03   2.7721736e+03   2.7590409e+03   2.7633724e+03   2.7585178e+03   2.7679427e+03   2.7593135e+03   2.7577475e+03   2.7577267e+03   2.7574875e+03   2.7573326e+03   2.7569955e+03   2.7700242e+03   2.7565762e+03   2.7658568e+03   2.7659777e+03   2.7705205e+03   2.7645114e+03   2.7611333e+03   2.7648951e+03   2.7518552e+03   2.7542570e+03   2.7682318e+03   2.7583002e+03   2.7490937e+03   2.7481415e+03   2.7484425e+03   2.7640550e+03   2.7491251e+03   2.7457469e+03   2.7598959e+03   2.7478631e+03   2.7529607e+03   2.7569743e+03   2.7533816e+03   2.7533865e+03   2.7602242e+03   2.7648880e+03   2.7607323e+03   2.7645282e+03   2.7557432e+03   2.7555735e+03   2.7562291e+03   2.7563119e+03   2.7712732e+03   2.7604115e+03   2.7598399e+03   2.7563935e+03   2.7638377e+03   2.7654552e+03   2.7578210e+03             NaN
2.8097612e+03   2.7984233e+03   2.8116876e+03   2.7947543e+03   2.8066041e+03   2.8025600e+03   2.8107906e+03   2.7975243e+03   2.7985703e+03   2.7958107e+03   2.8049496e+03   2.8026313e+03   2.7955230e+03   2.8109631e+03   2.8108322e+03   2.8009350e+03   2.7965143e+03   2.8031305e+03   2.8065556e+03   2.7944175e+03   2.8056174e+03   2.7932815e+03   2.7927488e+03   2.7981319e+03   2.7931214e+03   2.7922008e+03   2.7900410e+03   2.7972953e+03   2.7932963e+03   2.7892006e+03   2.7901268e+03   2.7891334e+03   2.7969688e+03   2.7849734e+03   2.7836607e+03   2.7833942e+03   2.7888132e+03   2.7889494e+03   2.7891386e+03   2.7783934e+03   2.7872655e+03   2.7892222e+03   2.7802952e+03   2.7852519e+03   2.7764402e+03   2.7812491e+03   2.7695336e+03   2.7791040e+03   2.7750000e+03   2.7755283e+03   2.7707755e+03   2.7816130e+03   2.7702664e+03   2.7705417e+03   2.7665577e+03   2.7799916e+03   2.7614652e+03   2.7688459e+03   2.7632447e+03   2.7635558e+03   2.7795951e+03   2.7587888e+03   2.7775506e+03   2.7594641e+03   2.7707407e+03   2.7621092e+03   2.7632104e+03   2.7576126e+03   2.7573740e+03   2.7690601e+03   2.7570058e+03   2.7567232e+03   2.7563384e+03   2.7563837e+03   2.7712626e+03   2.7559160e+03   2.7565477e+03   2.7631482e+03   2.7533622e+03   2.7534550e+03   2.7564908e+03   2.7528642e+03   2.7533837e+03   2.7597421e+03   2.7478404e+03   2.7480363e+03   2.7635381e+03   2.7474637e+03   2.7454295e+03   2.7480286e+03   2.7479161e+03   2.7665963e+03   2.7520683e+03   2.7511975e+03   2.7606345e+03   2.7539208e+03   2.7644299e+03   2.7578391e+03   2.7560050e+03   2.7588149e+03   2.7611029e+03   2.7575948e+03   2.7686077e+03   2.7554145e+03   2.7623909e+03   2.7734142e+03   2.7552824e+03   2.7731034e+03   2.7561897e+03   2.7562121e+03             NaN
2.8120694e+03   2.7946301e+03   2.7958033e+03   2.8099646e+03   2.8036567e+03   2.8005797e+03   2.7976347e+03   2.8087072e+03   2.7973710e+03   2.7977837e+03   2.8008083e+03   2.8087421e+03   2.8048178e+03   2.8051554e+03   2.8015363e+03   2.8010284e+03   2.8100029e+03   2.7985389e+03   2.7980166e+03   2.8023308e+03   2.7966972e+03   2.8079943e+03   2.8073601e+03   2.7982255e+03   2.8027175e+03   2.8002967e+03   2.7917918e+03   2.8053340e+03   2.7918843e+03   2.7975659e+03   2.8039146e+03   2.8011115e+03   2.7931246e+03   2.7906901e+03   2.7999250e+03   2.7912579e+03   2.7886604e+03   2.7888407e+03   2.7912625e+03   2.7877424e+03   2.7843773e+03   2.7935761e+03   2.7892714e+03   2.7766861e+03   2.7751778e+03   2.7728875e+03   2.7867658e+03   2.7706334e+03   2.7820483e+03   2.7792748e+03   2.7828112e+03   2.7785223e+03   2.7810041e+03   2.7722845e+03   2.7800224e+03   2.7796074e+03   2.7665359e+03   2.7678711e+03   2.7688774e+03   2.7669812e+03   2.7630609e+03   2.7611297e+03   2.7607815e+03   2.7630870e+03   2.7575129e+03   2.7607812e+03   2.7568905e+03   2.7584099e+03   2.7655408e+03   2.7570404e+03   2.7715604e+03   2.7568374e+03   2.7563151e+03   2.7562764e+03   2.7629234e+03   2.7551447e+03   2.7640377e+03   2.7553049e+03   2.7573001e+03   2.7555503e+03   2.7539573e+03   2.7627703e+03   2.7648410e+03   2.7516349e+03   2.7566912e+03   2.7477921e+03   2.7487538e+03   2.7486083e+03   2.7454889e+03   2.7466334e+03   2.7475904e+03   2.7529553e+03   2.7544440e+03   2.7550327e+03   2.7530013e+03   2.7548019e+03   2.7542877e+03   2.7652061e+03   2.7664466e+03   2.7570720e+03   2.7604860e+03   2.7681537e+03   2.7720004e+03   2.7551350e+03   2.7558765e+03   2.7546813e+03   2.7549880e+03   2.7643936e+03   2.7659875e+03   2.7610643e+03             NaN
2.8143776e+03   2.8021061e+03   2.8084977e+03   2.7986866e+03   2.8052171e+03   2.8139113e+03   2.7990522e+03   2.8022953e+03   2.8036870e+03   2.8102774e+03   2.7993605e+03   2.8074378e+03   2.8003724e+03   2.8039577e+03   2.8014180e+03   2.8023926e+03   2.8044707e+03   2.8035468e+03   2.8002849e+03   2.8035663e+03   2.8141863e+03   2.7997347e+03   2.8043049e+03   2.7977195e+03   2.8118960e+03   2.8003238e+03   2.7990708e+03   2.7952358e+03   2.7998872e+03   2.7942738e+03   2.7945744e+03   2.7948549e+03   2.8022566e+03   2.8020521e+03   2.7919639e+03   2.7966946e+03   2.8019441e+03   2.7976657e+03   2.7886837e+03   2.7899740e+03   2.7938045e+03   2.7843120e+03   2.7987001e+03   2.7811193e+03   2.7921409e+03   2.7844379e+03   2.7787863e+03   2.7754966e+03   2.7792618e+03   2.7735165e+03   2.7790304e+03   2.7788740e+03   2.7867751e+03   2.7817737e+03   2.7746017e+03   2.7786603e+03             NaN   2.7671676e+03   2.7635052e+03   2.7607323e+03   2.7624292e+03   2.7647720e+03   2.7585275e+03   2.7611250e+03   2.7637707e+03   2.7619251e+03   2.7662312e+03   2.7664135e+03   2.7571852e+03   2.7671908e+03   2.7610723e+03   2.7606625e+03   2.7560981e+03   2.7560223e+03   2.7678976e+03   2.7553867e+03   2.7540362e+03   2.7563158e+03   2.7695672e+03   2.7660786e+03   2.7541015e+03   2.7571694e+03   2.7546246e+03   2.7563479e+03   2.7513006e+03   2.7476917e+03   2.7473569e+03   2.7472848e+03   2.7465664e+03   2.7453350e+03   2.7450181e+03   2.7443716e+03   2.7483310e+03   2.7609848e+03   2.7556909e+03   2.7618292e+03   2.7645222e+03   2.7544005e+03   2.7541669e+03   2.7545981e+03   2.7666394e+03   2.7549997e+03   2.7543406e+03   2.7584819e+03   2.7561996e+03   2.7616011e+03   2.7685984e+03   2.7644320e+03   2.7544232e+03   2.7700684e+03             NaN
2.8166858e+03   2.8044914e+03   2.8005014e+03   2.8073050e+03   2.8005162e+03   2.8018198e+03   2.8030118e+03   2.8083014e+03   2.8022829e+03   2.8074604e+03   2.8087994e+03   2.8047452e+03   2.8102509e+03   2.8019557e+03   2.8144778e+03   2.8063361e+03   2.8007665e+03   2.8030410e+03   2.8082232e+03   2.8032876e+03   2.8072349e+03   2.8106914e+03   2.8042962e+03   2.7980953e+03   2.8020123e+03   2.7975482e+03   2.8038137e+03   2.8106273e+03   2.7981307e+03   2.7987141e+03   2.7988926e+03   2.7982212e+03   2.7975750e+03   2.8002470e+03   2.8000728e+03   2.7955250e+03   2.8010996e+03   2.7998727e+03   2.7930421e+03   2.7964001e+03   2.8012278e+03   2.7890465e+03   2.7966808e+03   2.7989949e+03   2.7831717e+03   2.7815716e+03   2.7822481e+03   2.7883788e+03   2.7830734e+03   2.7800146e+03   2.7796184e+03   2.7871953e+03   2.7812195e+03   2.7844883e+03   2.7854502e+03   2.7861177e+03   2.7738047e+03   2.7771684e+03   2.7663199e+03   2.7630263e+03   2.7772692e+03   2.7607245e+03   2.7599098e+03   2.7617572e+03   2.7732940e+03   2.7618284e+03   2.7597528e+03   2.7582035e+03   2.7566351e+03   2.7718288e+03   2.7681464e+03   2.7585329e+03   2.7557563e+03   2.7557071e+03   2.7550900e+03   2.7545576e+03   2.7542738e+03   2.7695713e+03   2.7546752e+03   2.7565850e+03   2.7583734e+03   2.7602710e+03   2.7578356e+03   2.7518103e+03   2.7604824e+03   2.7557579e+03   2.7496147e+03   2.7473116e+03   2.7472260e+03   2.7465735e+03   2.7462350e+03   2.7454243e+03   2.7484050e+03   2.7561319e+03   2.7592998e+03   2.7533135e+03   2.7592689e+03   2.7598030e+03   2.7642408e+03   2.7544540e+03   2.7685828e+03   2.7677768e+03   2.7661030e+03   2.7689860e+03   2.7542168e+03   2.7730169e+03   2.7568480e+03   2.7645491e+03   2.7550403e+03   2.7562964e+03             NaN
2.8189940e+03   2.8015619e+03   2.8015508e+03   2.8054208e+03   2.8175668e+03   2.8174620e+03   2.8041438e+03   2.8075465e+03   2.8085856e+03   2.8156260e+03   2.8154539e+03   2.8169713e+03   2.8052574e+03   2.8120964e+03   2.8054171e+03   2.8062416e+03   2.8090865e+03   2.8086977e+03   2.8062162e+03   2.8122627e+03   2.8072283e+03   2.8080228e+03   2.8059245e+03   2.8054016e+03   2.8043767e+03   2.8128081e+03   2.8161467e+03   2.8154048e+03   2.8126844e+03   2.8045649e+03   2.8028542e+03   2.8127060e+03   2.8041760e+03   2.8028033e+03   2.7988852e+03   2.8099463e+03   2.8005266e+03   2.8085659e+03   2.8057668e+03   2.7991186e+03   2.7982362e+03   2.7934747e+03   2.7960881e+03   2.7908256e+03   2.7872735e+03   2.7879832e+03   2.7828792e+03   2.7886629e+03   2.7775462e+03   2.7881128e+03   2.7893504e+03   2.7818269e+03   2.7833553e+03   2.7878307e+03   2.7817985e+03   2.7785340e+03   2.7811144e+03   2.7853512e+03   2.7699110e+03   2.7718823e+03   2.7767830e+03   2.7624170e+03   2.7699410e+03   2.7601870e+03   2.7759853e+03   2.7578099e+03   2.7580774e+03   2.7684406e+03   2.7574389e+03   2.7586750e+03   2.7561703e+03   2.7567401e+03   2.7556516e+03   2.7553084e+03   2.7551219e+03   2.7546427e+03   2.7543291e+03   2.7539604e+03   2.7536647e+03   2.7540575e+03   2.7616834e+03   2.7534431e+03   2.7570854e+03   2.7578287e+03   2.7623436e+03   2.7555325e+03   2.7557516e+03   2.7466982e+03   2.7465074e+03   2.7464394e+03   2.7462421e+03   2.7459011e+03   2.7440125e+03   2.7498334e+03   2.7451900e+03   2.7508552e+03             NaN   2.7535708e+03   2.7633367e+03             NaN   2.7732991e+03   2.7538099e+03   2.7539875e+03   2.7699412e+03   2.7651270e+03   2.7555494e+03   2.7568554e+03   2.7530779e+03   2.7642908e+03   2.7564842e+03             NaN
2.8213022e+03   2.8056350e+03   2.8066755e+03   2.8090587e+03   2.8079190e+03   2.8052402e+03   2.8076669e+03   2.8133053e+03   2.8159941e+03   2.8082031e+03   2.8139871e+03   2.8151023e+03   2.8127022e+03   2.8213953e+03   2.8098028e+03   2.8116849e+03   2.8119783e+03   2.8194935e+03   2.8190924e+03   2.8215949e+03   2.8184778e+03   2.8109923e+03   2.8090341e+03   2.8097581e+03   2.8086142e+03   2.8203627e+03   2.8059936e+03   2.8063144e+03   2.8066564e+03   2.8081313e+03   2.8074274e+03   2.8131633e+03   2.8072579e+03   2.8092082e+03   2.8042293e+03   2.8153400e+03   2.8145010e+03   2.8037062e+03   2.8025833e+03   2.8017016e+03   2.8006316e+03   2.8075530e+03   2.7962738e+03   2.7941655e+03   2.7978376e+03   2.7981048e+03   2.7923977e+03   2.7979713e+03   2.7820427e+03   2.7804672e+03   2.7864123e+03   2.7934112e+03   2.7833763e+03   2.7881771e+03   2.7906495e+03   2.7807912e+03   2.7844368e+03   2.7823437e+03   2.7761935e+03   2.7839523e+03   2.7731866e+03   2.7663036e+03   2.7745844e+03   2.7641357e+03   2.7582711e+03   2.7576897e+03   2.7718205e+03   2.7719639e+03   2.7690229e+03   2.7571494e+03   2.7557421e+03   2.7676803e+03   2.7571047e+03   2.7717386e+03   2.7550152e+03   2.7546120e+03   2.7542367e+03   2.7538123e+03   2.7531310e+03   2.7559878e+03   2.7647610e+03   2.7537372e+03   2.7528886e+03   2.7548946e+03   2.7517232e+03   2.7514341e+03   2.7505913e+03   2.7571253e+03   2.7467183e+03   2.7466320e+03   2.7461464e+03   2.7456608e+03   2.7449717e+03   2.7438149e+03   2.7458714e+03   2.7504216e+03   2.7499426e+03   2.7650401e+03   2.7562347e+03             NaN   2.7535872e+03   2.7658961e+03   2.7628882e+03   2.7671887e+03   2.7595395e+03   2.7688931e+03             NaN   2.7572345e+03   2.7617210e+03   2.7577762e+03             NaN
2.8236104e+03   2.8096740e+03   2.8116481e+03   2.8109793e+03   2.8233390e+03   2.8179415e+03   2.8111877e+03   2.8251546e+03   2.8146440e+03   2.8133803e+03   2.8133781e+03   2.8203068e+03   2.8172122e+03   2.8148688e+03   2.8141325e+03   2.8238796e+03   2.8167799e+03   2.8198849e+03   2.8283709e+03   2.8173718e+03   2.8166914e+03   2.8202558e+03   2.8175529e+03   2.8153602e+03   2.8256474e+03   2.8144254e+03   2.8211609e+03   2.8202895e+03   2.8131570e+03   2.8119362e+03   2.8130592e+03   2.8113227e+03   2.8133144e+03   2.8124538e+03   2.8095509e+03   2.8172979e+03   2.8089241e+03   2.8130348e+03   2.8080898e+03   2.8110323e+03   2.8170573e+03   2.8029753e+03   2.8018154e+03   2.8128289e+03   2.7981047e+03   2.8046419e+03   2.8008512e+03   2.7859003e+03   2.7835571e+03   2.7821478e+03   2.7906931e+03   2.7896497e+03   2.7925287e+03   2.7890631e+03   2.7880099e+03   2.7858160e+03   2.7821048e+03   2.7837833e+03   2.7780853e+03   2.7853454e+03   2.7716880e+03   2.7677706e+03   2.7663010e+03   2.7606499e+03   2.7651444e+03   2.7576660e+03   2.7716146e+03   2.7741738e+03   2.7566354e+03   2.7564666e+03   2.7558428e+03   2.7551467e+03   2.7564430e+03   2.7557566e+03   2.7548726e+03   2.7543800e+03   2.7554206e+03   2.7538101e+03   2.7533746e+03   2.7525921e+03   2.7531789e+03   2.7531765e+03   2.7527285e+03   2.7524020e+03   2.7519694e+03   2.7639042e+03   2.7538301e+03   2.7602632e+03   2.7461121e+03   2.7462998e+03   2.7457586e+03   2.7571795e+03   2.7569338e+03   2.7434324e+03   2.7441807e+03   2.7444537e+03   2.7459533e+03   2.7571056e+03   2.7611505e+03   2.7531997e+03   2.7572798e+03   2.7651862e+03   2.7646947e+03   2.7630089e+03   2.7643118e+03   2.7656269e+03             NaN   2.7598421e+03   2.7539717e+03   2.7526663e+03             NaN
2.8257464e+03   2.8156827e+03   2.8155122e+03   2.8173331e+03   2.8161444e+03   2.8162368e+03   2.8293859e+03   2.8210682e+03   2.8206141e+03   2.8195708e+03   2.8210479e+03   2.8240182e+03   2.8193303e+03   2.8212125e+03   2.8283606e+03   2.8251858e+03   2.8282919e+03   2.8202870e+03   2.8233748e+03   2.8201857e+03   2.8229157e+03   2.8253859e+03   2.8252421e+03   2.8239251e+03   2.8179417e+03   2.8186161e+03   2.8175445e+03   2.8241657e+03   2.8208470e+03   2.8162703e+03   2.8255543e+03   2.8231000e+03   2.8207884e+03   2.8154719e+03   2.8167122e+03   2.8135062e+03   2.8134466e+03   2.8225714e+03   2.8250895e+03   2.8139951e+03   2.8089823e+03   2.8126141e+03   2.8084086e+03   2.8036747e+03   2.7997601e+03   2.8064148e+03   2.7950702e+03   2.7943019e+03   2.7977484e+03   2.7864210e+03   2.7853028e+03   2.7841311e+03   2.7838987e+03   2.7897524e+03   2.7973741e+03   2.7876927e+03   2.7857892e+03   2.7832885e+03   2.7822134e+03   2.7794436e+03   2.7759814e+03   2.7726109e+03   2.7750054e+03   2.7649968e+03   2.7677044e+03   2.7745616e+03   2.7689745e+03   2.7638925e+03   2.7678458e+03   2.7679346e+03   2.7688586e+03   2.7555724e+03   2.7693033e+03   2.7678541e+03   2.7546166e+03   2.7620344e+03   2.7537650e+03   2.7534658e+03   2.7662571e+03   2.7526938e+03   2.7645098e+03   2.7527917e+03   2.7629549e+03   2.7614518e+03   2.7517658e+03   2.7554921e+03   2.7509556e+03   2.7509965e+03   2.7525791e+03   2.7462393e+03   2.7458749e+03   2.7547538e+03   2.7566444e+03   2.7445623e+03   2.7430067e+03   2.7546109e+03   2.7448999e+03   2.7574115e+03   2.7522600e+03   2.7660521e+03   2.7567767e+03   2.7532951e+03   2.7640571e+03   2.7529760e+03   2.7528295e+03   2.7528524e+03             NaN   2.7617606e+03   2.7525989e+03   2.7693714e+03             NaN
2.8271487e+03   2.8202877e+03   2.8261585e+03   2.8229560e+03   2.8256530e+03   2.8234781e+03   2.8242087e+03   2.8256980e+03   2.8235063e+03   2.8271627e+03   2.8279091e+03   2.8268270e+03   2.8276837e+03   2.8231721e+03   2.8242698e+03   2.8240762e+03   2.8297376e+03   2.8241229e+03   2.8232494e+03   2.8337030e+03   2.8246614e+03   2.8243281e+03   2.8308878e+03   2.8331514e+03   2.8241043e+03   2.8313312e+03   2.8262818e+03   2.8254026e+03   2.8208757e+03   2.8277513e+03   2.8210796e+03   2.8259811e+03   2.8216677e+03   2.8190687e+03   2.8275465e+03   2.8236281e+03   2.8217074e+03   2.8186936e+03   2.8268502e+03   2.8154829e+03   2.8137567e+03   2.8133672e+03   2.8153092e+03   2.8117380e+03   2.8066277e+03   2.8041151e+03   2.7962441e+03   2.7944344e+03   2.7907274e+03   2.7961329e+03   2.7875716e+03   2.7975449e+03   2.7884760e+03   2.7894351e+03   2.7999714e+03   2.7980178e+03   2.7880287e+03   2.7936220e+03   2.7865640e+03   2.7862056e+03   2.7799069e+03   2.7806829e+03   2.7720838e+03   2.7676659e+03   2.7710238e+03   2.7697328e+03   2.7759717e+03   2.7699708e+03   2.7570120e+03   2.7560066e+03   2.7650337e+03   2.7662321e+03   2.7551330e+03   2.7603011e+03   2.7617419e+03   2.7691603e+03   2.7546229e+03   2.7555565e+03   2.7582541e+03   2.7525881e+03   2.7557357e+03   2.7623199e+03   2.7519396e+03   2.7520422e+03   2.7525491e+03   2.7511887e+03   2.7613593e+03   2.7500977e+03   2.7481303e+03   2.7462546e+03   2.7459679e+03   2.7459237e+03   2.7459855e+03   2.7447896e+03   2.7440000e+03   2.7429688e+03   2.7447542e+03   2.7514025e+03   2.7542725e+03   2.7536580e+03   2.7520657e+03   2.7668308e+03   2.7647765e+03   2.7602366e+03   2.7563734e+03   2.7645019e+03             NaN   2.7622208e+03   2.7529343e+03   2.7600400e+03             NaN
2.8285510e+03   2.8270021e+03   2.8380874e+03   2.8279435e+03   2.8300283e+03   2.8323502e+03   2.8285838e+03   2.8345900e+03   2.8372046e+03   2.8364290e+03   2.8312816e+03   2.8321849e+03   2.8342575e+03   2.8301718e+03   2.8330357e+03   2.8271145e+03   2.8387697e+03   2.8354758e+03   2.8300941e+03   2.8280999e+03   2.8316043e+03   2.8306719e+03   2.8311224e+03   2.8276423e+03   2.8310345e+03   2.8277087e+03   2.8349659e+03   2.8278258e+03   2.8258468e+03   2.8299057e+03   2.8259438e+03   2.8247562e+03   2.8239640e+03   2.8268282e+03   2.8226101e+03   2.8273455e+03   2.8322836e+03   2.8268660e+03   2.8286102e+03   2.8245401e+03   2.8176733e+03   2.8208318e+03   2.8156618e+03   2.8123973e+03   2.8074939e+03   2.8077186e+03   2.8029157e+03   2.8046399e+03   2.7941698e+03   2.8044721e+03   2.8023499e+03   2.8017378e+03   2.7900098e+03   2.8007545e+03   2.7885026e+03   2.7890084e+03   2.8000972e+03   2.7961055e+03   2.7884011e+03   2.7900149e+03   2.7886566e+03   2.7815950e+03   2.7782558e+03   2.7828220e+03   2.7808491e+03   2.7762696e+03   2.7659935e+03   2.7576406e+03   2.7686409e+03   2.7616977e+03   2.7611958e+03   2.7644025e+03   2.7577289e+03   2.7649333e+03   2.7544073e+03   2.7540411e+03   2.7637331e+03   2.7528613e+03   2.7524753e+03   2.7542290e+03   2.7612263e+03   2.7655746e+03   2.7511182e+03   2.7629633e+03   2.7598469e+03   2.7508624e+03   2.7526785e+03   2.7518214e+03   2.7500312e+03   2.7552149e+03   2.7475204e+03   2.7450381e+03   2.7537913e+03   2.7599150e+03   2.7448170e+03   2.7644306e+03   2.7426330e+03   2.7434466e+03   2.7453908e+03   2.7502129e+03   2.7621191e+03   2.7532909e+03   2.7523980e+03   2.7559827e+03   2.7522599e+03   2.7678317e+03             NaN   2.7599676e+03   2.7547273e+03   2.7551947e+03             NaN
2.8299533e+03   2.8287752e+03   2.8320202e+03   2.8377340e+03   2.8351363e+03   2.8332789e+03   2.8442465e+03   2.8392505e+03   2.8438349e+03   2.8392057e+03   2.8353405e+03   2.8338988e+03   2.8340067e+03   2.8378449e+03   2.8327412e+03   2.8335544e+03   2.8452165e+03   2.8411359e+03   2.8397666e+03   2.8376041e+03   2.8391691e+03   2.8390770e+03   2.8346542e+03   2.8388450e+03   2.8322804e+03   2.8391910e+03   2.8378848e+03   2.8314566e+03   2.8335321e+03   2.8301639e+03   2.8298885e+03   2.8290913e+03   2.8329270e+03   2.8289129e+03   2.8343550e+03   2.8272418e+03   2.8339001e+03   2.8360481e+03   2.8255950e+03   2.8307957e+03   2.8222786e+03   2.8261576e+03   2.8299678e+03   2.8218934e+03   2.8109335e+03   2.8065593e+03   2.8111623e+03   2.8010317e+03   2.8030193e+03   2.7980131e+03   2.7953496e+03   2.7995321e+03   2.7907966e+03   2.7970525e+03   2.7981740e+03   2.7990273e+03   2.7904893e+03   2.7927057e+03   2.7976931e+03   2.7905804e+03   2.7869248e+03   2.7925265e+03   2.7806141e+03   2.7880309e+03   2.7692078e+03   2.7691448e+03   2.7611721e+03   2.7593560e+03   2.7730765e+03   2.7699539e+03   2.7565566e+03   2.7683030e+03   2.7664010e+03   2.7568362e+03   2.7548024e+03   2.7539255e+03   2.7544997e+03   2.7611216e+03   2.7637838e+03   2.7613447e+03   2.7596928e+03   2.7657876e+03   2.7540436e+03   2.7619013e+03   2.7566262e+03   2.7522320e+03   2.7558365e+03   2.7505815e+03   2.7652400e+03   2.7477771e+03   2.7453249e+03   2.7451810e+03   2.7445783e+03   2.7485072e+03   2.7502123e+03   2.7515955e+03   2.7475664e+03   2.7424557e+03   2.7543902e+03   2.7588562e+03   2.7519000e+03   2.7589242e+03   2.7621898e+03   2.7552724e+03   2.7534506e+03   2.7572416e+03             NaN   2.7581244e+03   2.7601069e+03   2.7675016e+03             NaN
2.8313555e+03   2.8330050e+03   2.8417993e+03   2.8366543e+03   2.8442092e+03   2.8386783e+03   2.8464095e+03   2.8421363e+03   2.8394071e+03   2.8411494e+03   2.8392201e+03   2.8380758e+03   2.8437318e+03   2.8432191e+03   2.8486580e+03   2.8357144e+03   2.8460383e+03   2.8427067e+03   2.8469916e+03   2.8410650e+03   2.8367182e+03   2.8367809e+03   2.8372915e+03   2.8481182e+03   2.8378799e+03   2.8409158e+03   2.8410570e+03   2.8405766e+03   2.8353049e+03   2.8362862e+03   2.8389115e+03   2.8337804e+03   2.8339803e+03   2.8341527e+03   2.8356067e+03   2.8321908e+03   2.8340461e+03   2.8321511e+03   2.8391761e+03   2.8282909e+03   2.8332331e+03   2.8291170e+03   2.8273498e+03   2.8185085e+03   2.8262384e+03   2.8112018e+03   2.8121193e+03   2.8160050e+03   2.8093791e+03   2.8024112e+03   2.7963634e+03   2.8021501e+03   2.7964287e+03   2.7951926e+03   2.8059413e+03   2.8006285e+03   2.8032420e+03   2.8024953e+03   2.7909431e+03   2.8055571e+03   2.7894599e+03   2.7985603e+03   2.7847892e+03   2.7784086e+03   2.7860426e+03   2.7758594e+03   2.7646925e+03   2.7746462e+03   2.7619843e+03   2.7630434e+03   2.7603703e+03   2.7587947e+03   2.7595948e+03   2.7687947e+03   2.7585669e+03   2.7591732e+03   2.7533478e+03   2.7529633e+03   2.7671918e+03   2.7685747e+03   2.7582186e+03   2.7649741e+03   2.7683574e+03   2.7517432e+03   2.7542764e+03   2.7497446e+03   2.7610070e+03   2.7497587e+03   2.7501671e+03   2.7505559e+03   2.7548139e+03   2.7454026e+03   2.7446960e+03   2.7455757e+03   2.7454817e+03   2.7535396e+03   2.7496384e+03   2.7435376e+03   2.7420519e+03   2.7468991e+03   2.7507950e+03   2.7510562e+03   2.7586402e+03   2.7618710e+03   2.7689753e+03   2.7516078e+03   2.7627875e+03   2.7686319e+03   2.7599396e+03   2.7513770e+03             NaN
2.8327578e+03   2.8478662e+03   2.8470043e+03   2.8425067e+03   2.8455213e+03   2.8471070e+03   2.8581557e+03   2.8457015e+03   2.8542362e+03   2.8520909e+03   2.8518900e+03   2.8436697e+03   2.8448407e+03   2.8523000e+03   2.8425574e+03   2.8495519e+03   2.8433191e+03   2.8505615e+03   2.8399431e+03   2.8478455e+03   2.8499722e+03   2.8476431e+03   2.8513777e+03   2.8409831e+03   2.8435900e+03   2.8452252e+03   2.8464093e+03   2.8402331e+03   2.8391606e+03   2.8396726e+03   2.8387178e+03   2.8389471e+03   2.8457807e+03   2.8360210e+03   2.8368620e+03   2.8376176e+03   2.8449911e+03   2.8390036e+03   2.8346002e+03   2.8380598e+03   2.8306194e+03   2.8397092e+03   2.8336640e+03   2.8323798e+03   2.8254773e+03   2.8134260e+03   2.8117301e+03   2.8085164e+03   2.8099666e+03   2.8112591e+03   2.8136993e+03   2.7975945e+03   2.8038611e+03   2.8026727e+03   2.7955962e+03   2.7936396e+03   2.8022633e+03   2.7940058e+03   2.8017650e+03   2.7919028e+03   2.7963586e+03   2.8008510e+03   2.7885990e+03   2.7823293e+03   2.7770342e+03   2.7725854e+03   2.7692852e+03   2.7640637e+03   2.7655641e+03   2.7583507e+03   2.7590434e+03   2.7554500e+03   2.7641150e+03   2.7745297e+03   2.7684769e+03   2.7553706e+03   2.7570453e+03   2.7529345e+03   2.7526690e+03   2.7668792e+03   2.7554996e+03   2.7629564e+03   2.7629611e+03   2.7610621e+03   2.7550620e+03   2.7546120e+03   2.7480280e+03   2.7612074e+03   2.7491317e+03   2.7494853e+03   2.7489391e+03   2.7444899e+03   2.7449803e+03   2.7455780e+03   2.7451426e+03   2.7440221e+03   2.7576355e+03   2.7433193e+03   2.7492426e+03   2.7499430e+03   2.7518935e+03   2.7519288e+03   2.7515476e+03   2.7592812e+03   2.7542835e+03   2.7623324e+03   2.7519717e+03   2.7635682e+03   2.7533426e+03   2.7628332e+03             NaN
2.8341601e+03   2.8418099e+03   2.8501274e+03   2.8490488e+03   2.8477709e+03   2.8564253e+03   2.8479975e+03   2.8492589e+03   2.8583319e+03   2.8559767e+03   2.8497621e+03   2.8487649e+03   2.8485089e+03   2.8493702e+03   2.8463892e+03   2.8464392e+03   2.8448676e+03   2.8446196e+03   2.8443490e+03   2.8441940e+03   2.8502119e+03   2.8483512e+03   2.8497100e+03   2.8481257e+03   2.8455753e+03   2.8475162e+03   2.8448207e+03   2.8486514e+03   2.8480270e+03   2.8486467e+03   2.8452189e+03   2.8482311e+03   2.8453866e+03   2.8468668e+03   2.8476529e+03   2.8474807e+03   2.8461317e+03   2.8451629e+03   2.8496351e+03   2.8368700e+03   2.8384331e+03   2.8364716e+03   2.8293737e+03   2.8287578e+03   2.8354759e+03   2.8165785e+03   2.8264453e+03   2.8217880e+03   2.8131476e+03   2.8177837e+03   2.8076909e+03   2.8085405e+03   2.7982485e+03   2.8039390e+03   2.8093343e+03   2.7953567e+03   2.7992581e+03   2.8054545e+03   2.7934529e+03   2.7957404e+03   2.7965958e+03   2.7966703e+03   2.7936303e+03   2.7866498e+03   2.7819182e+03   2.7802554e+03   2.7779817e+03   2.7688895e+03   2.7639804e+03   2.7687612e+03   2.7638195e+03   2.7693725e+03   2.7667508e+03   2.7641307e+03   2.7649649e+03   2.7593099e+03   2.7667938e+03   2.7566474e+03   2.7525543e+03   2.7522860e+03   2.7557684e+03   2.7592768e+03   2.7599083e+03   2.7515486e+03   2.7551284e+03   2.7496909e+03   2.7541852e+03   2.7616089e+03   2.7512743e+03   2.7485738e+03   2.7542011e+03   2.7458253e+03   2.7458378e+03   2.7447209e+03   2.7437468e+03   2.7434583e+03   2.7437816e+03   2.7478903e+03   2.7583566e+03   2.7416246e+03   2.7503043e+03   2.7501494e+03   2.7558424e+03   2.7527166e+03   2.7667380e+03   2.7548043e+03   2.7588609e+03   2.7511156e+03   2.7509827e+03   2.7537156e+03             NaN
2.8355624e+03   2.8453953e+03   2.8439517e+03   2.8571499e+03   2.8540746e+03   2.8519660e+03   2.8528511e+03   2.8557977e+03   2.8563628e+03   2.8640721e+03   2.8546778e+03   2.8529439e+03   2.8530062e+03   2.8546125e+03   2.8631801e+03   2.8514373e+03   2.8494326e+03   2.8491230e+03   2.8600533e+03   2.8488785e+03   2.8572568e+03   2.8574587e+03   2.8520291e+03   2.8578000e+03   2.8599514e+03   2.8546849e+03   2.8494998e+03   2.8488280e+03   2.8478018e+03   2.8496690e+03   2.8489163e+03   2.8472273e+03   2.8490408e+03   2.8547584e+03   2.8529128e+03   2.8474681e+03   2.8459931e+03   2.8442683e+03   2.8435801e+03   2.8413268e+03   2.8495180e+03   2.8368069e+03   2.8336009e+03   2.8435019e+03   2.8240015e+03   2.8312295e+03   2.8269312e+03   2.8131245e+03   2.8107260e+03   2.8203059e+03   2.8155734e+03   2.8088263e+03   2.8079508e+03   2.8053733e+03   2.8105527e+03   2.8061924e+03   2.8063102e+03   2.7952449e+03   2.7945321e+03   2.8044637e+03   2.7956927e+03   2.8010988e+03   2.7964807e+03   2.7895223e+03   2.7862657e+03   2.7882168e+03   2.7787968e+03   2.7731653e+03   2.7681859e+03   2.7644727e+03   2.7601351e+03   2.7599468e+03   2.7688380e+03   2.7633135e+03   2.7561949e+03   2.7688868e+03   2.7578651e+03   2.7532143e+03   2.7583573e+03   2.7586850e+03   2.7517678e+03   2.7546675e+03   2.7541293e+03   2.7556950e+03   2.7563103e+03   2.7505363e+03   2.7497497e+03   2.7611902e+03   2.7464612e+03   2.7485519e+03   2.7605468e+03   2.7549245e+03   2.7442867e+03   2.7438753e+03   2.7437780e+03   2.7430577e+03   2.7418982e+03   2.7425214e+03   2.7430460e+03   2.7417312e+03   2.7517531e+03   2.7532222e+03   2.7503801e+03   2.7571553e+03   2.7580856e+03   2.7508582e+03   2.7512340e+03   2.7588418e+03   2.7570157e+03   2.7633038e+03             NaN
2.8369647e+03   2.8442408e+03   2.8540224e+03   2.8590908e+03   2.8605521e+03   2.8559334e+03   2.8549734e+03   2.8697086e+03   2.8664995e+03   2.8569375e+03   2.8691328e+03   2.8664471e+03   2.8621682e+03   2.8604006e+03   2.8620688e+03   2.8639653e+03   2.8542794e+03   2.8657422e+03   2.8631409e+03   2.8534643e+03   2.8534382e+03   2.8532333e+03   2.8606164e+03   2.8588727e+03   2.8563623e+03   2.8546118e+03   2.8536048e+03   2.8525928e+03   2.8555328e+03   2.8531136e+03   2.8573528e+03   2.8544240e+03   2.8520596e+03   2.8491344e+03   2.8486954e+03   2.8508075e+03   2.8488976e+03   2.8508997e+03   2.8559293e+03   2.8500345e+03   2.8448197e+03   2.8467783e+03   2.8368860e+03   2.8345115e+03   2.8274677e+03   2.8289181e+03   2.8207695e+03   2.8233229e+03   2.8244533e+03   2.8252601e+03   2.8181204e+03   2.8057632e+03   2.8097122e+03   2.8021467e+03   2.8145404e+03   2.8083146e+03   2.7997876e+03   2.7993137e+03   2.8047647e+03   2.8040573e+03   2.7953901e+03   2.8047346e+03   2.7899871e+03   2.7888642e+03   2.7915267e+03   2.7910332e+03   2.7806288e+03   2.7840133e+03   2.7706955e+03   2.7708288e+03             NaN   2.7635746e+03   2.7603906e+03   2.7594471e+03   2.7708148e+03   2.7709846e+03   2.7670083e+03   2.7620855e+03   2.7583539e+03   2.7586951e+03   2.7541707e+03   2.7514518e+03   2.7512684e+03   2.7578954e+03   2.7589046e+03   2.7506659e+03   2.7500014e+03   2.7567395e+03   2.7573270e+03   2.7453676e+03   2.7532107e+03   2.7450317e+03   2.7455970e+03   2.7551269e+03   2.7430766e+03   2.7424463e+03   2.7439488e+03   2.7496344e+03   2.7500561e+03   2.7459500e+03   2.7438060e+03   2.7472011e+03   2.7508810e+03   2.7611679e+03   2.7638964e+03   2.7534011e+03   2.7661148e+03   2.7504946e+03   2.7586971e+03   2.7640628e+03             NaN
2.8383669e+03   2.8534525e+03   2.8563478e+03   2.8601140e+03   2.8530528e+03   2.8563287e+03   2.8671169e+03   2.8680739e+03   2.8602959e+03   2.8706230e+03   2.8612542e+03   2.8649745e+03   2.8609555e+03   2.8614648e+03   2.8705627e+03   2.8619546e+03   2.8581166e+03   2.8602499e+03   2.8572822e+03   2.8576685e+03   2.8728924e+03   2.8618501e+03   2.8598149e+03   2.8608763e+03   2.8595396e+03   2.8583088e+03   2.8576101e+03   2.8569689e+03   2.8585798e+03   2.8588273e+03   2.8588262e+03   2.8588069e+03   2.8657649e+03   2.8607019e+03   2.8612756e+03   2.8560117e+03   2.8627146e+03   2.8524230e+03   2.8574357e+03   2.8537635e+03   2.8572176e+03   2.8459376e+03   2.8479271e+03   2.8359174e+03   2.8311510e+03   2.8343443e+03   2.8351658e+03   2.8241074e+03   2.8190960e+03   2.8183289e+03   2.8131639e+03   2.8153701e+03   2.8086492e+03   2.8121444e+03   2.8103013e+03   2.8066861e+03   2.8082946e+03   2.7982663e+03   2.8000350e+03   2.8052023e+03   2.7947386e+03   2.8057804e+03   2.7889236e+03   2.7890221e+03   2.7890805e+03   2.7868312e+03   2.7892251e+03   2.7811598e+03   2.7758770e+03   2.7696784e+03   2.7694580e+03   2.7666194e+03   2.7675000e+03   2.7580733e+03   2.7558963e+03   2.7544881e+03   2.7708440e+03   2.7612020e+03   2.7585973e+03   2.7519995e+03   2.7587023e+03   2.7542400e+03   2.7510455e+03   2.7506230e+03   2.7503172e+03   2.7536969e+03   2.7566634e+03   2.7512826e+03   2.7544094e+03   2.7564113e+03   2.7513675e+03   2.7455000e+03   2.7542358e+03   2.7433475e+03   2.7511250e+03   2.7437905e+03   2.7419551e+03   2.7420784e+03   2.7408076e+03   2.7585045e+03   2.7550482e+03   2.7507709e+03   2.7496088e+03   2.7581487e+03   2.7513487e+03   2.7566863e+03   2.7503361e+03   2.7561458e+03   2.7505965e+03   2.7634001e+03             NaN
